-10.546 15.168 -7.326 19 18 18
-10.355 15.133 -6.637 18 18 18
-10.369 15.099 -5.861 18 18 18
-10.380 15.067 -5.085 19 18 18
-10.492 15.036 -4.268 18 18 18
-10.114 14.998 -3.661 24 19 18
-10.377 14.969 -2.780 18 18 18
-10.154 14.933 -2.107 19 18 18
-10.154 14.901 -1.339 19 19 18
-9.810 14.863 -0.718 18 18 18
-10.037 14.835 0.144 19 18 18
-9.684 14.797 0.761 27 18 18
-9.527 14.762 1.460 19 24 18
-9.288 14.726 2.125 18 19 18
-9.183 14.692 2.846 18 19 19
-8.686 14.652 3.403 18 18 19
-8.271 14.614 3.995 18 18 18
-8.306 14.582 4.773 27 19 18
-7.869 14.543 5.355 27 19 18
-7.108 14.499 5.804 24 18 18
-6.667 14.460 6.386 33 24 18
-6.124 14.420 6.927 19 24 18
-5.639 14.380 7.492 24 19 18
-4.741 14.334 7.889 18 24 18
-4.010 14.291 8.355 19 24 18
-3.218 14.246 8.796 18 33 18
-2.244 14.199 9.166 27 24 18
-10.176 15.776 -38.917 33 33 44
-8.371 15.719 -38.981 56 76 63
-7.137 15.669 -38.770 91 118 91
-5.838 15.618 -38.588 44 68 69
-11.078 14.859 -16.434 27 19 19
-9.992 14.810 -16.139 33 33 27
-8.936 14.763 -15.830 44 50 37
-9.201 14.734 -14.933 44 40 33
-9.519 14.706 -14.015 44 37 24
-9.921 14.678 -13.059 40 33 33
-10.146 14.649 -12.184 33 24 18
-9.993 14.615 -11.475 27 24 18
-10.235 14.585 -10.594 24 24 18
-10.411 14.556 -9.743 24 18 19
-10.506 14.525 -8.929 18 24 18
-10.668 14.494 -8.085 19 18 18
-10.393 14.458 -7.433 24 18 18
-10.423 14.426 -6.648 18 18 18
-10.452 14.393 -5.865 24 19 18
-10.462 14.361 -5.091 19 18 18
-10.001 14.322 -4.518 19 18 18
-10.241 14.293 -3.646 19 18 18
-10.673 14.267 -2.693 18 18 18
-10.044 14.226 -2.193 18 18 18
-9.832 14.190 -1.517 24 19 18
-10.012 14.161 -0.673 24 18 18
-9.706 14.123 -0.035 19 24 18
-9.537 14.089 0.659 27 18 18
-9.444 14.055 1.387 19 18 18
-9.364 14.022 2.118 19 18 18
-8.916 13.983 2.695 24 19 18
-8.908 13.951 3.457 19 18 18
-8.355 13.910 3.990 19 19 18
-8.206 13.876 4.692 19 18 18
-7.380 13.830 5.115 18 18 18
-7.148 13.794 5.782 19 24 19
-6.740 13.755 6.377 18 24 18
-6.058 13.712 6.862 19 19 18
-5.435 13.671 7.369 18 19 19
-5.051 13.631 7.976 27 18 19
-4.157 13.586 8.375 24 24 18
-3.172 13.537 8.739 19 24 19
-5.953 14.930 -39.377 40 56 44
-4.622 14.877 -39.209 24 27 33
-10.209 14.070 -15.305 40 33 27
-9.318 14.024 -14.922 44 37 40
-9.119 13.988 -14.232 40 40 33
-9.373 13.959 -13.342 50 50 37
-9.530 13.930 -12.495 40 40 27
-9.785 13.902 -11.606 37 33 19
-10.149 13.875 -10.673 33 27 19
-10.348 13.846 -9.811 33 24 24
-10.138 13.811 -9.129 27 18 19
-10.319 13.781 -8.277 27 24 18
-10.290 13.748 -7.517 27 18 18
-10.455 13.718 -6.674 19 24 18
-10.427 13.686 -5.916 24 18 18
-10.492 13.655 -5.117 18 18 18
-10.041 13.615 -4.541 18 18 18
-10.292 13.587 -3.664 18 19 18
-10.188 13.554 -2.940 18 18 18
-10.280 13.524 -2.133 19 18 18
-9.812 13.484 -1.564 19 18 18
-10.097 13.457 -0.676 18 18 18
-9.564 13.416 -0.135 24 18 18
-9.535 13.384 0.620 24 19 18
-9.305 13.347 1.288 18 19 18
-9.386 13.317 2.087 18 18 18
-8.678 13.274 2.557 18 18 24
-8.801 13.243 3.372 19 19 18
-8.228 13.202 3.898 18 24 18
-8.086 13.168 4.603 18 19 19
-7.465 13.126 5.111 24 24 18
-7.482 13.094 5.881 18 19 19
-6.691 13.048 6.319 24 19 24
-5.927 13.003 6.768 24 19 18
-5.870 12.971 7.509 18 24 24
-4.946 12.923 7.895 24 18 18
-4.096 12.877 8.312 24 19 18
-3.190 12.829 8.707 18 19 19
-5.126 14.193 -39.814 27 37 19
-3.918 14.142 -39.586 19 27 24
-10.166 13.327 -14.587 33 33 27
-9.038 13.276 -14.308 50 37 40
-8.895 13.241 -13.593 52 56 40
-9.403 13.217 -12.592 50 50 33
-9.336 13.184 -11.844 50 37 33
-9.555 13.156 -10.972 40 33 19
-9.747 13.126 -10.114 33 37 27
-9.832 13.096 -9.302 33 24 19
-9.848 13.065 -8.522 33 24 19
-9.953 13.035 -7.703 27 24 19
-9.949 13.003 -6.934 24 24 19
-10.167 12.974 -6.068 19 18 18
-10.158 12.942 -5.300 27 19 18
-9.685 12.902 -4.734 24 18 18
-9.989 12.876 -3.834 18 18 18
-9.913 12.843 -3.097 19 18 18
-10.029 12.813 -2.279 18 18 18
-9.893 12.778 -1.569 19 18 18
-9.842 12.746 -0.823 18 18 18
-9.706 12.712 -0.115 24 18 18
-9.500 12.677 0.566 19 18 18
-9.250 12.641 1.227 24 18 18
-8.914 12.603 1.851 18 18 18
-8.685 12.568 2.520 18 24 18
-8.793 12.537 3.330 18 18 18
-8.246 12.496 3.866 19 18 18
-7.934 12.460 4.502 19 18 18
-7.666 12.423 5.155 18 18 18
-7.182 12.383 5.719 24 18 19
-6.732 12.343 6.297 19 18 18
-6.222 12.302 6.851 24 19 18
-5.848 12.264 7.461 19 18 19
-4.860 12.215 7.820 19 19 18
-4.170 12.171 8.303 19 24 18
-3.177 12.121 8.663 18 27 18
-10.175 12.584 -13.845 24 33 24
-9.635 12.542 -13.306 40 33 27
-8.531 12.491 -13.015 44 44 37
-8.717 12.462 -12.156 50 52 44
-8.895 12.434 -11.301 40 37 37
-9.187 12.407 -10.398 40 37 33
-9.474 12.380 -9.499 40 37 24
-9.589 12.350 -8.674 33 24 24
-9.617 12.320 -7.889 33 24 18
-9.691 12.289 -7.085 24 19 19
-9.620 12.257 -6.343 18 19 19
-9.597 12.224 -5.582 18 19 18
-9.510 12.192 -4.848 18 18 18
-9.521 12.160 -4.074 18 18 18
-9.780 12.134 -3.193 19 18 18
-9.605 12.099 -2.499 18 18 18
-9.703 12.069 -1.690 19 18 19
-9.706 12.038 -0.920 18 18 18
-9.423 12.001 -0.274 18 18 18
-9.348 11.968 0.462 27 18 18
-9.228 11.934 1.177 18 19 19
-8.898 11.897 1.804 18 18 18
-8.477 11.857 2.394 19 24 18
-8.236 11.822 3.059 19 19 18
-8.025 11.787 3.736 18 18 18
-7.952 11.754 4.470 18 19 18
-7.421 11.713 5.014 18 18 18
-7.322 11.679 5.737 19 19 18
-6.594 11.634 6.201 18 24 18
-6.030 11.592 6.733 24 19 18
-5.663 11.554 7.346 18 18 18
-4.876 11.507 7.789 27 19 18
-4.125 11.463 8.246 18 19 18
-3.040 11.410 8.569 24 19 19
-9.335 11.794 -12.702 27 18 27
-8.941 11.755 -12.099 24 37 27
-8.707 11.719 -11.425 37 44 33
-8.325 11.681 -10.815 37 44 37
-8.498 11.653 -9.964 40 40 33
-8.891 11.629 -9.019 33 37 18
-8.956 11.598 -8.215 27 27 24
-9.132 11.571 -7.366 33 19 18
-9.033 11.537 -6.637 19 19 18
-9.042 11.506 -5.860 27 18 19
-9.182 11.477 -5.029 19 18 18
-9.092 11.445 -4.297 19 18 18
-9.470 11.421 -3.365 18 18 18
-9.294 11.386 -2.672 24 18 18
-9.373 11.356 -1.869 18 19 18
-9.379 11.325 -1.099 18 19 18
-9.562 11.297 -0.254 18 18 18
-9.085 11.257 0.311 19 24 18
-8.976 11.223 1.032 18 18 18
-8.573 11.185 1.629 18 24 18
-8.591 11.154 2.403 19 19 18
-8.333 11.118 3.060 27 18 18
-8.199 11.084 3.769 19 18 18
-7.995 11.049 4.449 19 18 18
-7.339 11.005 4.941 18 19 18
-7.374 10.975 5.720 24 19 18
-6.435 10.924 6.096 24 19 18
-6.054 10.886 6.704 24 18 18
-5.528 10.845 7.252 19 18 19
-4.872 10.801 7.747 24 18 24
-3.833 10.749 8.089 19 18 18
-3.295 10.706 8.634 19 19 19
-9.728 11.028 -11.018 24 19 27
-9.014 10.983 -10.554 27 19 24
-8.177 10.935 -10.144 27 33 27
-7.805 10.897 -9.531 33 33 19
-7.411 10.858 -8.927 37 33 33
-8.088 10.840 -7.858 27 27 24
-8.043 10.808 -7.103 27 19 19
-8.280 10.782 -6.228 24 19 18
-8.257 10.750 -5.466 24 18 18
-8.515 10.724 -4.584 18 18 18
-8.877 10.700 -3.658 18 18 18
-8.794 10.668 -2.924 19 18 18
-8.853 10.638 -2.129 18 18 18
-9.023 10.610 -1.289 19 18 18
-9.109 10.582 -0.485 18 18 18
-9.022 10.549 0.245 18 18 18
-8.694 10.512 0.874 18 18 18
-8.685 10.481 1.636 18 19 18
-8.398 10.444 2.282 19 18 18
-8.379 10.412 3.040 19 18 18
-7.687 10.368 3.517 24 18 18
-7.822 10.340 4.338 18 19 19
-7.250 10.297 4.865 18 18 18
-7.188 10.264 5.603 18 19 18
-6.466 10.219 6.070 19 19 18
-6.152 10.182 6.705 19 19 18
-5.493 10.137 7.199 19 18 18
-4.640 10.088 7.614 19 18 18
-4.166 10.048 8.185 24 18 19
-3.142 9.996 8.533 19 18 18
-1.999 9.940 8.834 19 24 19
-8.829 10.238 -9.901 19 24 19
-8.736 10.205 -9.166 24 27 27
-7.781 10.154 -8.806 24 24 18
-7.419 10.115 -8.187 27 19 18
-7.302 10.082 -7.464 24 24 18
-7.662 10.059 -6.535 19 18 18
-7.888 10.033 -5.664 18 19 19
-7.699 9.998 -4.974 18 18 18
-8.435 9.983 -3.887 18 19 18
-8.245 9.948 -3.198 19 18 18
-8.422 9.922 -2.353 18 19 18
-8.603 9.895 -1.507 18 18 18
-8.637 9.865 -0.724 18 18 18
-8.953 9.841 0.177 19 18 18
-8.644 9.804 0.814 19 18 18
-8.257 9.765 1.419 18 19 18
-8.351 9.736 2.223 19 19 18
-8.225 9.703 2.936 18 24 18
-7.774 9.663 3.514 18 24 18
-7.585 9.628 4.200 24 18 18
-7.206 9.589 4.808 18 18 18
-6.748 9.549 5.384 19 18 18
-6.406 9.511 6.007 19 18 24
-6.176 9.476 6.677 24 18 18
-5.469 9.430 7.150 24 18 18
-4.889 9.386 7.677 18 24 18
-3.951 9.335 8.059 18 18 19
-3.298 9.290 8.557 19 18 24
-2.068 9.232 8.823 18 19 18
-8.327 9.455 -8.609 24 24 19
-7.163 9.398 -8.339 27 18 19
-6.552 9.355 -7.828 24 19 18
-6.878 9.331 -6.912 19 19 18
-7.204 9.308 -5.998 18 19 18
-7.341 9.280 -5.167 18 18 18
-7.713 9.258 -4.235 18 18 18
-8.004 9.234 -3.340 19 18 18
-8.122 9.206 -2.520 18 18 18
-8.185 9.178 -1.723 19 18 18
-8.160 9.146 -0.965 18 18 18
-8.727 9.129 0.043 19 18 18
-8.354 9.091 0.652 19 18 18
-8.346 9.060 1.415 19 18 18
-7.941 9.020 2.013 24 19 18
-8.229 8.997 2.899 19 18 18
-7.618 8.953 3.410 18 19 18
-7.606 8.922 4.170 18 18 18
-7.350 8.886 4.828 18 18 18
-6.706 8.842 5.327 18 18 18
-6.293 8.802 5.921 19 19 18
-5.692 8.758 6.439 19 27 18
-5.347 8.720 7.061 24 19 18
-4.891 8.679 7.639 18 19 18
-3.937 8.626 8.013 19 24 18
-3.387 8.583 8.555 19 24 18
-2.042 8.523 8.774 18 19 18
-8.018 8.707 -8.009 19 27 24
-7.112 8.656 -7.626 19 24 19
-6.369 8.608 -7.172 24 18 18
-6.803 8.588 -6.210 19 18 18
-7.148 8.566 -5.289 18 18 18
-7.019 8.532 -4.571 18 18 18
-7.423 8.511 -3.627 18 18 18
-7.882 8.492 -2.661 19 18 18
-8.070 8.467 -1.812 18 18 18
-7.861 8.432 -1.131 18 18 18
-8.288 8.411 -0.182 18 18 18
-8.433 8.385 0.646 18 18 18
-8.178 8.349 1.306 18 18 18
-8.284 8.322 2.117 24 18 18
-7.692 8.278 2.636 24 18 18
-7.371 8.240 3.268 18 18 18
-7.409 8.211 4.050 24 18 18
-7.094 8.174 4.683 27 18 19
-6.735 8.135 5.300 19 18 19
-6.056 8.088 5.785 18 19 19
-5.687 8.050 6.397 19 19 19
-5.648 8.020 7.146 24 19 24
-4.963 7.972 7.630 24 19 18
-3.852 7.916 7.940 24 18 24
-2.979 7.865 8.350 18 24 19
-2.326 7.820 8.851 24 18 19
-8.355 8.005 -7.903 19 18 18
-6.948 7.940 -7.737 19 19 18
-5.316 7.870 -7.665 19 18 18
-6.215 7.862 -6.503 18 19 18
-6.904 7.849 -5.434 18 18 18
-6.677 7.814 -4.758 18 18 18
-7.095 7.794 -3.807 19 18 18
-7.352 7.770 -2.926 18 18 18
-7.836 7.753 -1.950 18 18 18
-7.953 7.726 -1.131 18 19 18
-8.175 7.701 -0.269 18 18 18
-8.187 7.671 0.504 18 18 18
-8.219 7.643 1.284 18 18 18
-7.963 7.607 1.944 18 18 18
-7.903 7.575 2.684 18 24 18
-7.757 7.542 3.390 18 18 18
-7.538 7.508 4.064 18 18 18
-7.147 7.468 4.667 19 19 24
-6.853 7.431 5.310 19 18 19
-6.422 7.391 5.896 24 24 27
-5.912 7.349 6.451 19 19 19
-5.495 7.308 7.044 19 18 18
-4.950 7.265 7.586 19 19 18
-4.073 7.213 7.992 18 19 18
-3.170 7.161 8.389 19 24 18
-2.050 7.103 8.700 27 19 18
-7.567 7.274 -8.284 24 18 18
-5.508 7.193 -8.399 18 19 18
-5.170 7.154 -7.768 19 24 18
-5.874 7.142 -6.689 18 19 18
-6.368 7.125 -5.703 18 18 18
-6.696 7.103 -4.789 19 18 18
-6.692 7.074 -4.019 18 18 18
-7.259 7.058 -3.006 18 18 18
-7.547 7.036 -2.112 18 18 18
-8.055 7.019 -1.128 18 18 18
-8.020 6.990 -0.375 24 18 18
-8.205 6.965 0.472 18 18 18
-8.328 6.938 1.290 18 18 18
-7.713 6.893 1.799 18 18 18
-7.744 6.865 2.579 18 18 18
-7.942 6.841 3.427 18 24 18
-7.732 6.806 4.104 27 19 18
-6.811 6.752 4.488 18 19 18
-7.034 6.729 5.346 24 18 18
-6.349 6.681 5.827 19 19 18
-5.879 6.640 6.399 19 24 18
-5.709 6.607 7.093 24 19 18
-4.979 6.558 7.558 18 24 18
-4.197 6.508 8.003 19 18 18
-3.057 6.449 8.304 19 24 19
-2.285 6.399 8.756 19 27 18
-6.569 6.537 -8.756 24 19 18
-4.978 6.465 -8.668 19 18 18
-5.232 6.442 -7.782 19 18 18
-6.009 6.433 -6.672 18 18 18
-6.617 6.419 -5.636 19 18 19
-7.310 6.409 -4.566 18 18 18
-6.867 6.368 -3.984 18 18 18
-7.212 6.348 -3.066 18 18 18
-7.693 6.331 -2.090 18 18 18
-7.976 6.309 -1.201 18 18 18
-8.337 6.289 -0.280 18 18 18
-8.170 6.256 0.418 18 18 18
-8.661 6.240 1.391 18 18 18
-7.844 6.190 1.815 19 18 18
-7.863 6.160 2.590 18 18 18
-7.866 6.132 3.357 19 19 18
-7.586 6.095 4.006 24 19 18
-7.303 6.058 4.653 18 18 18
-6.724 6.013 5.179 18 18 19
-6.387 5.975 5.804 24 18 18
-5.793 5.930 6.325 19 18 18
-5.481 5.893 6.961 24 18 18
-4.890 5.848 7.483 24 24 24
-4.314 5.803 8.013 18 19 18
-3.002 5.738 8.243 18 24 18
-1.897 5.679 8.560 19 24 19
-4.905 5.778 -9.518 27 18 27
-4.845 5.747 -8.766 18 18 19
-5.521 5.737 -7.697 18 18 18
-6.005 5.721 -6.714 19 18 18
-6.529 5.706 -5.714 18 18 18
-6.989 5.689 -4.743 18 18 18
-7.542 5.676 -3.735 18 18 18
-7.320 5.641 -3.059 18 18 18
-7.914 5.628 -2.037 18 18 18
-8.252 5.608 -1.123 19 18 18
-8.420 5.584 -0.284 18 18 18
-8.206 5.550 0.393 18 18 18
-8.310 5.523 1.204 19 18 18
-8.500 5.500 2.051 18 18 18
-7.807 5.452 2.527 18 18 18
-7.620 5.418 3.214 18 18 18
-7.899 5.397 4.096 18 18 18
-7.028 5.344 4.499 18 18 18
-6.444 5.299 5.024 33 24 18
-6.290 5.266 5.725 19 19 19
-5.849 5.225 6.308 33 18 19
-5.429 5.184 6.901 24 19 18
-4.986 5.142 7.483 18 18 19
-4.168 5.091 7.914 19 19 18
-3.255 5.036 8.307 18 18 24
-5.922 5.122 -9.895 24 24 18
-4.546 5.054 -9.713 24 18 24
-5.088 5.040 -8.701 24 18 18
-5.733 5.029 -7.646 18 18 18
-6.206 5.015 -6.667 24 19 18
-6.463 4.993 -5.782 18 18 18
-7.085 4.982 -4.743 18 18 18
-7.625 4.968 -3.739 18 18 18
-7.685 4.941 -2.944 18 19 18
-8.189 4.927 -1.959 19 18 18
-8.114 4.896 -1.222 18 18 18
-8.695 4.884 -0.208 19 18 18
-8.342 4.845 0.411 18 18 18
-8.141 4.811 1.094 19 18 18
-8.324 4.788 1.938 18 19 18
-8.121 4.753 2.619 18 19 18
-7.518 4.708 3.134 18 24 18
-7.697 4.684 3.973 19 18 18
-6.998 4.635 4.448 18 18 24
-7.060 4.609 5.239 24 19 19
-6.358 4.560 5.714 24 19 18
-6.221 4.528 6.422 24 19 24
-5.484 4.477 6.884 19 27 18
-5.033 4.435 7.464 19 18 18
-4.287 4.386 7.924 19 24 18
-3.132 4.323 8.218 18 27 18
-2.213 4.268 8.610 24 18 19
-6.090 4.413 -9.862 24 27 24
-5.213 4.359 -9.464 19 19 24
-5.471 4.337 -8.575 19 18 18
-6.118 4.328 -7.520 18 18 18
-6.332 4.306 -6.652 18 18 18
-7.181 4.302 -5.515 18 18 18
-7.483 4.283 -4.612 18 18 18
-7.675 4.260 -3.758 19 18 18
-7.919 4.239 -2.883 18 18 18
-8.315 4.222 -1.945 18 18 18
-8.371 4.195 -1.153 24 18 18
-8.140 4.160 -0.481 18 18 18
-8.409 4.140 0.400 19 18 19
-8.195 4.105 1.077 18 19 18
-8.144 4.075 1.823 18 19 18
-7.811 4.037 2.450 24 18 18
-7.700 4.006 3.170 19 19 18
-7.367 3.968 3.797 18 24 18
-7.037 3.930 4.425 18 19 18
-6.989 3.900 5.171 27 24 18
-6.764 3.864 5.843 24 19 18
-6.090 3.816 6.329 24 19 19
-5.433 3.768 6.825 24 19 18
-5.126 3.730 7.463 24 19 19
-3.917 3.666 7.734 19 24 18
-3.204 3.617 8.209 24 18 24
-2.445 3.565 8.665 24 18 19
-5.226 3.673 -10.277 18 18 24
-4.593 3.626 -9.774 27 18 33
-5.850 3.636 -8.452 18 18 18
-6.538 3.629 -7.379 18 19 18
-6.688 3.605 -6.540 18 18 18
-7.295 3.595 -5.505 18 18 18
-7.542 3.574 -4.626 19 18 18
-8.193 3.566 -3.577 18 18 18
-8.210 3.538 -2.800 18 18 18
-8.542 3.520 -1.889 18 18 18
-8.540 3.492 -1.121 18 18 18
-8.238 3.455 -0.479 18 18 18
-8.458 3.433 0.381 19 18 18
-8.480 3.406 1.158 18 18 18
-8.156 3.368 1.788 18 19 18
-8.219 3.342 2.581 19 19 18
-7.436 3.290 3.021 18 24 18
-7.562 3.266 3.839 18 19 19
-7.255 3.228 4.476 18 24 18
-7.037 3.194 5.151 19 19 18
-6.328 3.144 5.623 19 18 18
-6.401 3.119 6.418 19 19 19
-5.393 3.059 6.769 24 19 18
-5.155 3.024 7.436 18 18 18
-4.243 2.967 7.828 24 18 18
-3.171 2.906 8.156 19 24 18
-1.873 2.837 8.395 27 19 24
-5.508 2.939 -9.418 18 19 18
-6.273 2.936 -8.309 19 18 18
-6.521 2.915 -7.427 24 18 18
-7.056 2.905 -6.422 18 18 18
-7.558 2.892 -5.433 18 18 18
-7.750 2.870 -4.577 18 18 18
-8.538 2.867 -3.469 18 18 18
-8.557 2.840 -2.691 19 18 18
-8.886 2.822 -1.782 27 18 18
-8.767 2.791 -1.063 18 24 18
-8.703 2.761 -0.322 18 24 19
-8.749 2.735 0.464 18 18 18
-8.569 2.701 1.156 19 19 19
-8.242 2.663 1.785 18 24 18
-8.245 2.636 2.553 18 19 18
-7.847 2.596 3.153 19 24 18
-7.828 2.567 3.910 18 19 18
-7.499 2.529 4.539 18 18 18
-7.411 2.499 5.267 24 19 24
-6.612 2.446 5.702 19 18 19
-6.103 2.401 6.257 24 24 18
-5.568 2.356 6.802 19 24 18
-5.037 2.312 7.348 24 27 18
-3.749 2.243 7.588 18 19 24
-3.084 2.193 8.083 24 24 24
-2.173 2.136 8.477 24 33 19
-6.438 2.312 -10.609 18 24 24
-4.995 2.236 -10.459 24 33 18
-5.592 2.229 -9.421 19 24 19
-6.310 2.224 -8.333 24 18 18
-6.942 2.216 -7.286 24 19 18
-7.590 2.210 -6.232 18 18 18
-7.801 2.189 -5.369 19 18 18
-8.173 2.174 -4.437 18 18 18
-8.458 2.156 -3.544 18 18 18
-8.654 2.134 -2.689 18 18 18
-9.003 2.119 -1.772 19 18 18
-8.545 2.075 -1.197 24 19 18
-8.769 2.056 -0.335 19 19 19
-8.970 2.035 0.518 18 18 18
-8.766 2.001 1.200 19 19 18
-8.635 1.968 1.910 24 19 18
-8.156 1.926 2.477 18 18 18
-8.227 1.901 3.272 24 24 19
-7.619 1.853 3.784 27 19 24
-7.586 1.824 4.536 19 24 18
-7.301 1.788 5.183 27 27 18
-6.728 1.741 5.711 24 24 24
-6.064 1.692 6.202 18 27 19
-5.669 1.652 6.805 27 24 27
-4.977 1.601 7.285 27 19 18
-4.023 1.542 7.660 27 27 24
-3.268 1.490 8.118 27 24 18
-2.349 1.432 8.510 24 27 24
-6.311 1.593 -10.705 24 27 19
-4.992 1.523 -10.500 24 24 19
-6.109 1.532 -9.237 18 24 18
-6.845 1.529 -8.142 24 19 19
-6.985 1.506 -7.307 18 18 18
-7.561 1.498 -6.284 18 18 18
-7.883 1.481 -5.373 18 18 18
-8.338 1.469 -4.406 18 18 18
-8.693 1.454 -3.483 18 18 18
-8.652 1.425 -2.730 18 18 18
-9.224 1.418 -1.718 18 18 18
-9.298 1.393 -0.918 18 18 18
-8.841 1.350 -0.344 24 18 18
-8.711 1.319 0.370 24 18 18
-8.767 1.293 1.161 18 24 18
-8.248 1.249 1.709 18 18 18
-8.451 1.228 2.560 18 24 18
-8.225 1.194 3.232 27 18 18
-7.935 1.156 3.876 24 24 18
-7.794 1.124 4.583 19 27 18
-7.292 1.080 5.140 24 19 24
-6.727 1.034 5.671 19 24 18
-6.187 0.989 6.213 24 19 18
-5.800 0.948 6.819 19 24 19
-4.992 0.893 7.252 24 33 19
-4.443 0.848 7.793 24 24 19
-3.365 0.784 8.118 24 27 24
-2.349 0.721 8.471 24 24 24
-5.433 0.850 -11.129 33 24 19
-5.476 0.824 -10.330 33 33 19
-6.123 0.819 -9.272 19 19 18
-6.940 0.819 -8.142 24 18 18
-7.346 0.806 -7.191 18 18 18
-7.721 0.792 -6.256 19 19 18
-8.008 0.775 -5.359 18 18 18
-8.681 0.772 -4.299 18 18 18
-8.617 0.743 -3.555 19 18 18
-8.749 0.720 -2.728 19 18 19
-9.227 0.709 -1.756 18 19 19
-9.156 0.680 -1.018 18 19 18
-9.128 0.652 -0.261 19 18 18
-9.077 0.623 0.484 24 18 18
-8.598 0.580 1.050 27 18 18
-8.959 0.565 1.968 24 19 18
-8.571 0.526 2.572 19 24 18
-8.449 0.494 3.286 24 27 18
-8.103 0.455 3.908 24 24 19
-7.708 0.415 4.508 19 19 19
-7.306 0.374 5.107 19 24 18
-7.013 0.337 5.750 24 18 24
-6.309 0.285 6.224 24 24 19
-5.649 0.235 6.718 24 24 18
-5.207 0.193 7.302 18 19 19
-4.555 0.143 7.800 24 24 27
-3.604 0.083 8.178 24 19 19
-2.683 0.023 8.568 19 27 19
-6.833 0.210 -11.336 27 24 19
-5.445 0.135 -11.163 37 37 27
-6.246 0.137 -10.036 27 33 24
-6.533 0.119 -9.135 24 33 19
-6.961 0.108 -8.173 18 18 18
-7.844 0.112 -7.017 18 18 18
-7.929 0.088 -6.205 19 18 18
-8.022 0.065 -5.393 18 18 18
-8.398 0.052 -4.460 18 18 18
-8.913 0.043 -3.469 18 18 18
-8.958 0.018 -2.680 19 19 18
-9.350 0.005 -1.744 18 18 18
-8.894 -0.037 -1.168 18 19 18
-9.013 -0.060 -0.350 18 18 18
-8.930 -0.089 0.383 18 19 19
-8.911 -0.117 1.142 18 18 18
-8.583 -0.155 1.771 24 33 18
-8.683 -0.178 2.579 24 19 24
-8.902 -0.197 3.436 18 18 18
-8.013 -0.255 3.831 18 18 18
-7.585 -0.297 4.418 24 19 18
-7.354 -0.332 5.087 19 24 24
-7.088 -0.368 5.742 27 19 18
-6.575 -0.414 6.295 19 19 24
-5.852 -0.466 6.762 24 19 27
-5.238 -0.514 7.276 18 18 24
-4.457 -0.570 7.721 24 19 19
-3.815 -0.619 8.224 24 27 19
-2.801 -0.683 8.577 19 19 18
-6.288 -0.523 -11.615 33 24 27
-5.554 -0.576 -11.157 27 33 24
-6.467 -0.570 -9.981 24 27 18
-7.051 -0.575 -8.950 24 19 18
-7.694 -0.578 -7.895 18 18 19
-7.926 -0.596 -7.021 19 18 18
-8.100 -0.616 -6.173 24 18 18
-8.323 -0.635 -5.303 18 18 18
-8.709 -0.647 -4.367 18 18 18
-9.084 -0.660 -3.435 18 18 18
-9.435 -0.673 -2.516 18 18 18
-9.228 -0.707 -1.835 18 18 18
-9.050 -0.740 -1.142 18 18 18
-9.158 -0.762 -0.327 18 18 18
-8.855 -0.799 0.312 18 18 18
-9.100 -0.817 1.182 18 19 18
-9.010 -0.847 1.911 24 18 18
-8.735 -0.883 2.562 27 18 19
-8.504 -0.918 3.231 18 19 18
-8.123 -0.958 3.837 19 19 18
-7.734 -0.999 4.441 19 18 18
-7.418 -1.037 5.074 19 24 18
-7.032 -1.078 5.681 24 24 18
-6.441 -1.126 6.201 24 27 18
-5.792 -1.176 6.699 19 24 19
-5.462 -1.215 7.329 19 27 19
-4.424 -1.279 7.669 27 24 18
-3.884 -1.327 8.213 24 33 18
-2.535 -1.403 8.430 24 24 27
-6.052 -1.272 -10.980 33 40 24
-6.622 -1.277 -9.954 24 24 19
-7.069 -1.287 -8.983 27 18 18
-7.537 -1.296 -8.004 18 19 18
-8.282 -1.294 -6.908 18 19 18
-8.333 -1.319 -6.113 18 18 18
-8.511 -1.338 -5.263 18 18 18
-8.982 -1.346 -4.290 18 18 18
-9.128 -1.367 -3.456 18 19 18
-9.757 -1.370 -2.419 24 19 18
-9.082 -1.421 -1.936 19 18 18
-9.194 -1.443 -1.120 18 18 18
-9.370 -1.462 -0.278 19 19 18
-9.189 -1.496 0.413 24 19 24
-9.259 -1.519 1.210 19 18 18
-8.925 -1.558 1.835 19 19 19
-8.829 -1.587 2.562 18 18 19
-8.564 -1.623 3.217 19 19 19
-8.118 -1.666 3.797 24 24 18
-7.901 -1.700 4.471 24 18 19
-7.384 -1.745 5.022 18 27 18
-7.131 -1.781 5.682 24 27 18
-6.722 -1.823 6.278 24 18 18
-6.047 -1.875 6.765 24 27 18
-5.223 -1.932 7.191 27 27 24
-4.640 -1.980 7.717 24 27 19
-3.978 -2.032 8.212 33 27 19
-2.934 -2.098 8.553 19 37 27
-6.588 -1.966 -10.787 27 27 27
-6.967 -1.978 -9.843 27 27 18
-7.437 -1.986 -8.862 24 33 19
-8.054 -1.988 -7.820 24 18 18
-8.263 -2.007 -6.956 19 18 18
-8.482 -2.024 -6.088 18 18 18
-8.782 -2.038 -5.187 18 18 18
-9.071 -2.053 -4.291 24 18 18
-9.353 -2.068 -3.400 18 18 18
-9.129 -2.102 -2.726 18 18 18
-9.478 -2.114 -1.807 18 18 18
-9.933 -2.123 -0.847 18 18 18
-9.578 -2.162 -0.229 18 18 18
-9.531 -2.190 0.518 24 19 19
-9.316 -2.224 1.194 18 19 18
-9.231 -2.253 1.925 18 24 18
-8.898 -2.292 2.551 24 27 24
-8.637 -2.327 3.208 18 24 18
-8.154 -2.372 3.772 27 19 18
-8.000 -2.403 4.473 18 18 24
-7.549 -2.447 5.051 18 19 18
-7.248 -2.484 5.691 24 19 18
-6.533 -2.538 6.161 18 27 24
-6.070 -2.581 6.735 24 18 24
-5.566 -2.627 7.293 19 19 27
-4.554 -2.693 7.644 24 19 24
-3.894 -2.744 8.140 24 33 19
-2.810 -2.813 8.464 27 24 24
-7.050 -2.611 -12.183 24 19 24
-5.842 -2.684 -11.932 27 37 27
-6.606 -2.680 -10.819 40 24 27
-7.072 -2.688 -9.839 24 19 24
-7.728 -2.688 -8.777 24 18 18
-7.631 -2.717 -8.043 27 18 18
-8.308 -2.716 -6.977 19 18 18
-8.547 -2.732 -6.100 18 18 18
-9.003 -2.740 -5.131 18 18 18
-9.427 -2.748 -4.178 18 18 18
-9.413 -2.774 -3.413 18 18 18
-9.189 -2.809 -2.739 19 18 18
-9.484 -2.822 -1.844 24 18 18
-9.742 -2.838 -0.967 19 18 19
-10.074 -2.850 -0.059 19 18 18
-9.458 -2.900 0.448 18 18 19
-9.625 -2.919 1.285 19 24 24
-9.263 -2.958 1.899 18 19 19
-8.899 -2.998 2.512 18 18 18
-8.682 -3.033 3.188 24 24 18
-8.396 -3.069 3.834 24 18 19
-7.710 -3.122 4.314 24 19 18
-7.578 -3.153 5.024 24 18 18
-7.102 -3.198 5.592 19 27 24
-6.678 -3.240 6.182 24 24 18
-5.850 -3.299 6.606 19 24 18
-5.341 -3.344 7.162 19 24 19
-4.650 -3.398 7.644 24 24 24
-3.878 -3.454 8.095 24 24 24
-2.776 -3.525 8.412 19 24 19
-6.133 -3.362 -12.625 33 33 19
-5.815 -3.401 -11.984 33 37 33
-6.849 -3.385 -10.753 27 24 33
-7.230 -3.395 -9.810 24 24 18
-7.902 -3.393 -8.742 24 19 18
-8.544 -3.393 -7.688 18 19 18
-8.608 -3.415 -6.887 19 18 18
-8.877 -3.429 -5.998 18 18 18
-9.244 -3.439 -5.068 18 18 18
-9.603 -3.450 -4.143 18 18 18
-9.696 -3.472 -3.333 18 18 18
-9.232 -3.516 -2.761 18 18 18
-9.704 -3.522 -1.791 19 18 18
-9.784 -3.544 -0.988 19 18 18
-10.095 -3.556 -0.089 18 18 18
-9.375 -3.611 0.373 19 18 18
-9.453 -3.633 1.173 18 18 18
-9.207 -3.668 1.836 24 18 18
-9.137 -3.696 2.573 19 19 18
-8.797 -3.735 3.196 24 18 19
-8.500 -3.773 3.838 24 18 18
-8.036 -3.817 4.410 18 24 19
-7.515 -3.863 4.959 19 19 19
-7.094 -3.905 5.550 19 24 27
-6.534 -3.954 6.083 24 19 19
-5.860 -4.007 6.571 24 33 24
-5.971 -4.027 7.381 33 24 19
-4.499 -4.113 7.544 24 27 19
-3.948 -4.161 8.084 27 27 18
-2.711 -4.237 8.346 24 24 24
-5.994 -4.083 -12.726 33 33 27
-6.153 -4.102 -11.876 27 40 24
-7.347 -4.078 -10.577 27 27 19
-7.323 -4.104 -9.810 24 24 24
-7.937 -4.104 -8.766 19 24 18
-8.469 -4.107 -7.762 19 18 18
-8.597 -4.126 -6.932 19 18 18
-9.003 -4.134 -5.984 18 18 18
-9.304 -4.147 -5.082 19 18 18
-9.446 -4.166 -4.250 18 18 18
-9.694 -4.181 -3.373 18 18 18
-9.950 -4.195 -2.495 18 18 18
-9.887 -4.223 -1.753 19 18 18
-10.069 -4.240 -0.907 18 18 18
-9.919 -4.271 -0.203 19 19 18
-9.497 -4.313 0.386 18 18 18
-9.386 -4.343 1.106 19 24 18
-9.058 -4.382 1.735 18 19 18
-9.210 -4.400 2.564 24 19 19
-8.870 -4.439 3.188 18 18 18
-8.399 -4.484 3.756 24 24 18
-8.054 -4.523 4.378 19 18 18
-7.631 -4.566 4.968 19 24 19
-7.257 -4.607 5.578 19 27 24
-6.790 -4.651 6.150 24 24 19
-6.121 -4.704 6.639 24 19 18
-5.534 -4.754 7.164 33 19 18
-4.823 -4.809 7.637 24 24 19
-3.669 -4.883 7.932 27 27 24
-2.734 -4.947 8.317 24 24 24
-7.121 -4.726 -13.052 19 19 24
-5.835 -4.806 -12.837 33 37 27
-6.428 -4.806 -11.796 40 33 33
-7.280 -4.794 -10.647 27 24 19
-7.589 -4.806 -9.734 24 24 18
-8.205 -4.804 -8.691 19 24 18
-8.387 -4.821 -7.837 24 18 18
-8.738 -4.832 -6.911 18 18 18
-9.179 -4.838 -5.947 18 18 18
-9.406 -4.852 -5.078 19 18 18
-9.637 -4.868 -4.208 18 18 18
-9.854 -4.883 -3.344 18 18 18
-10.182 -4.893 -2.436 18 19 18
-10.187 -4.918 -1.665 18 18 18
-10.353 -4.935 -0.827 18 18 18
-9.866 -4.981 -0.265 18 18 18
-9.937 -5.002 0.532 18 18 18
-9.663 -5.039 1.184 19 18 18
-9.297 -5.079 1.795 18 19 18
-9.177 -5.109 2.511 18 24 18
-8.942 -5.144 3.179 19 18 18
-8.395 -5.192 3.716 19 18 18
-8.285 -5.221 4.436 24 18 18
-7.833 -5.265 5.012 19 24 18
-6.974 -5.326 5.422 19 24 18
-6.642 -5.365 6.050 24 18 19
-6.315 -5.405 6.680 19 33 24
-5.814 -5.450 7.239 24 19 19
-4.776 -5.520 7.579 18 19 24
-3.822 -5.586 7.955 24 18 18
-2.804 -5.655 8.306 24 27 18
-6.792 -5.455 -13.237 27 33 24
-5.929 -5.517 -12.836 27 40 33
-6.935 -5.498 -11.616 33 44 24
-6.929 -5.523 -10.840 27 27 19
-8.006 -5.501 -9.593 24 24 18
-8.477 -5.505 -8.613 24 24 18
-8.500 -5.528 -7.828 18 24 18
-8.671 -5.546 -6.980 18 18 18
-9.052 -5.554 -6.043 18 18 18
-9.590 -5.554 -5.039 18 18 18
-9.687 -5.575 -4.226 18 18 18
-9.546 -5.606 -3.516 18 18 18
-9.896 -5.615 -2.597 18 18 18
-10.244 -5.624 -1.680 19 18 18
-10.171 -5.651 -0.943 18 18 18
-10.013 -5.683 -0.242 18 18 18
-9.251 -5.740 0.203 24 18 18
-9.852 -5.738 1.224 18 18 18
-9.253 -5.788 1.738 18 19 24
-9.375 -5.807 2.554 24 18 24
-9.002 -5.848 3.164 19 24 19
-8.542 -5.893 3.738 24 19 18
-8.117 -5.936 4.326 19 19 18
-7.684 -5.979 4.912 18 18 27
-7.135 -6.027 5.450 24 24 27
-6.941 -6.061 6.134 19 18 19
-6.287 -6.114 6.629 19 19 27
-5.494 -6.173 7.068 24 18 18
-5.272 -6.207 7.743 24 27 24
-4.187 -6.279 8.065 27 24 24
-3.030 -6.355 8.360 24 24 24
-6.207 -6.196 -13.535 27 24 19
-5.707 -6.243 -12.974 37 50 33
-7.119 -6.204 -11.576 24 27 24
-7.676 -6.204 -10.555 27 24 18
-8.049 -6.212 -9.614 19 18 18
-8.397 -6.220 -8.688 19 19 18
-8.538 -6.239 -7.852 18 18 18
-8.682 -6.257 -7.015 19 18 18
-9.259 -6.255 -5.993 18 18 18
-9.758 -6.257 -5.007 18 18 18
-9.679 -6.284 -4.270 18 18 18
-9.614 -6.312 -3.526 18 18 18
-10.168 -6.310 -2.520 18 18 18
-10.095 -6.338 -1.783 18 18 18
-10.123 -6.361 -1.003 18 18 18
-10.241 -6.380 -0.186 19 18 18
-9.817 -6.422 0.403 18 18 18
-9.625 -6.456 1.089 18 18 18
-9.324 -6.493 1.729 18 19 18
-8.970 -6.533 2.346 19 19 18
-8.918 -6.559 3.090 19 19 19
-8.513 -6.602 3.686 27 18 19
-8.119 -6.643 4.288 24 24 19
-7.482 -6.696 4.789 18 19 18
-7.347 -6.726 5.498 24 24 18
-7.024 -6.765 6.130 27 19 18
-6.537 -6.810 6.694 24 27 19
-5.493 -6.882 7.030 24 19 24
-5.049 -6.926 7.613 24 19 19
-4.152 -6.991 8.012 19 24 19
-3.231 -7.056 8.402 24 27 18
-6.140 -6.916 -13.605 24 27 24
-6.005 -6.946 -12.883 40 40 37
-6.947 -6.927 -11.692 33 33 37
-7.419 -6.930 -10.706 33 24 27
-8.298 -6.913 -9.547 18 19 18
-8.576 -6.925 -8.651 18 19 19
-8.882 -6.935 -7.743 18 19 18
-8.920 -6.957 -6.953 18 18 18
-9.141 -6.971 -6.084 19 18 18
-9.523 -6.977 -5.147 19 18 18
-9.945 -6.982 -4.195 18 18 18
-10.070 -7.000 -3.372 19 18 18
-10.291 -7.014 -2.507 18 18 18
-10.109 -7.046 -1.816 18 18 18
-9.848 -7.082 -1.159 18 18 18
-9.978 -7.100 -0.336 24 18 18
-9.565 -7.142 0.257 19 18 18
-9.478 -7.170 0.987 18 27 18
-9.436 -7.196 1.736 18 19 18
-9.202 -7.230 2.404 18 18 18
-8.890 -7.268 3.040 18 19 18
-8.806 -7.296 3.770 27 24 24
-7.962 -7.358 4.183 24 19 18
-7.687 -7.395 4.834 18 18 18
-7.325 -7.436 5.450 18 19 24
-6.762 -7.485 5.983 19 27 18
-6.326 -7.529 6.568 19 24 19
-5.826 -7.576 7.127 24 19 24
-4.957 -7.640 7.536 18 18 27
-4.081 -7.704 7.944 33 24 24
-2.885 -7.783 8.222 27 27 19
-6.059 -7.659 -12.901 33 44 37
-7.102 -7.635 -11.664 37 37 37
-7.533 -7.638 -10.698 24 24 19
-8.241 -7.629 -9.612 19 18 18
-8.605 -7.636 -8.678 27 19 18
-8.535 -7.662 -7.934 18 18 18
-8.874 -7.671 -7.012 19 18 18
-9.444 -7.668 -5.993 18 18 18
-9.356 -7.695 -5.259 18 18 18
-9.815 -7.697 -4.291 18 18 18
-10.142 -7.706 -3.380 18 18 18
-10.203 -7.726 -2.585 19 18 18
-9.679 -7.775 -2.039 18 18 18
-10.211 -7.773 -1.044 18 19 18
-9.758 -7.817 -0.469 18 18 18
-9.622 -7.847 0.241 18 18 18
-9.648 -7.870 1.020 19 18 18
-9.502 -7.900 1.725 19 18 18
-9.201 -7.937 2.365 24 19 19
-8.733 -7.983 2.934 24 18 24
-8.573 -8.014 3.633 19 19 18
-8.040 -8.063 4.177 24 19 24
-8.140 -8.082 4.984 24 19 19
-7.894 -8.116 5.646 24 18 24
-6.536 -8.204 5.851 18 18 19
-6.170 -8.244 6.464 19 19 24
-5.685 -8.291 7.031 27 24 19
-5.497 -8.324 7.718 19 24 24
-4.307 -8.403 7.997 24 27 24
-2.956 -8.491 8.213 19 24 24
-1.731 -8.572 8.481 27 24 19
-7.551 -8.257 -13.846 24 24 18
-5.629 -8.372 -13.911 33 27 19
-5.930 -8.381 -12.998 33 37 40
-6.728 -8.367 -11.869 37 33 24
-7.705 -8.344 -10.663 33 24 19
-7.764 -8.365 -9.859 24 24 18
-8.430 -8.356 -8.794 24 18 19
-8.881 -8.358 -7.824 24 18 18
-9.019 -8.375 -6.990 24 24 18
-9.188 -8.390 -6.144 18 18 18
-9.438 -8.402 -5.264 18 18 18
-9.690 -8.413 -4.384 18 18 18
-9.850 -8.429 -3.545 19 18 18
-9.988 -8.445 -2.716 18 18 18
-10.102 -8.463 -1.899 18 18 18
-10.028 -8.490 -1.162 19 18 18
-9.637 -8.532 -0.559 18 18 18
-9.590 -8.558 0.189 18 18 18
-9.890 -8.566 1.082 18 18 18
-9.390 -8.613 1.638 19 19 18
-9.223 -8.644 2.335 24 19 18
-8.795 -8.687 2.922 19 18 19
-8.532 -8.724 3.577 18 18 18
-8.140 -8.766 4.180 19 19 19
-8.152 -8.788 4.950 27 24 18
-7.433 -8.846 5.417 24 24 24
-7.012 -8.890 6.008 24 19 24
-6.076 -8.958 6.388 24 19 19
-5.434 -9.012 6.888 19 27 27
-5.274 -9.043 7.588 24 27 24
-4.169 -9.119 7.902 33 19 19
-3.607 -9.170 8.439 24 33 24
-2.060 -9.268 8.576 33 27 27
-7.311 -8.984 -13.992 24 24 24
-5.540 -9.093 -13.991 24 27 24
-6.094 -9.089 -12.966 37 52 40
-7.088 -9.064 -11.751 27 27 27
-7.486 -9.068 -10.799 24 24 24
-8.049 -9.064 -9.776 18 24 18
-8.588 -9.061 -8.766 19 18 18
-8.392 -9.094 -8.076 18 19 18
-8.860 -9.094 -7.098 19 19 18
-9.006 -9.110 -6.262 18 18 18
-9.371 -9.116 -5.332 18 18 18
-9.613 -9.126 -4.457 18 18 18
-9.949 -9.133 -3.542 18 18 18
-10.183 -9.145 -2.673 18 18 18
-9.777 -9.187 -2.076 18 18 18
-9.650 -9.217 -1.362 18 18 18
-9.850 -9.230 -0.509 18 18 19
-9.867 -9.251 0.266 18 18 18
-9.693 -9.283 0.959 24 18 18
-9.422 -9.319 1.612 18 18 18
-9.302 -9.348 2.328 18 18 18
-8.719 -9.399 2.850 18 27 18
-8.339 -9.441 3.458 18 18 19
-8.205 -9.470 4.167 24 18 19
-7.712 -9.517 4.728 19 24 24
-7.496 -9.551 5.404 19 19 19
-7.242 -9.587 6.064 19 18 19
-6.300 -9.656 6.440 27 27 19
-5.467 -9.720 6.863 18 27 33
-5.140 -9.759 7.494 19 33 19
-4.433 -9.816 7.971 33 37 27
-3.667 -9.877 8.424 24 24 27
-2.324 -9.967 8.644 27 33 33
-7.397 -9.695 -13.995 27 24 18
-5.569 -9.808 -14.020 33 24 27
-6.285 -9.796 -12.923 33 37 24
-6.802 -9.794 -11.917 27 27 27
-7.509 -9.781 -10.829 33 24 19
-7.932 -9.783 -9.868 18 18 19
-8.507 -9.777 -8.841 24 18 19
-8.484 -9.802 -8.076 27 18 18
-8.780 -9.810 -7.173 18 18 18
-8.870 -9.828 -6.360 18 18 18
-9.377 -9.826 -5.370 18 18 18
-9.685 -9.833 -4.466 18 19 18
-9.860 -9.847 -3.621 24 18 18
-9.766 -9.874 -2.890 18 18 18
-9.903 -9.890 -2.062 18 18 18
-9.691 -9.924 -1.384 24 18 18
-10.126 -9.924 -0.431 18 18 18
-9.768 -9.965 0.185 18 18 18
-9.640 -9.994 0.898 19 18 18
-9.305 -10.034 1.524 18 18 18
-9.172 -10.062 2.235 18 18 18
-8.999 -10.094 2.928 19 18 18
-8.662 -10.132 3.553 18 19 18
-8.013 -10.188 4.049 18 18 18
-7.710 -10.227 4.688 18 18 19
-7.486 -10.260 5.361 24 19 19
-7.109 -10.301 5.970 18 24 19
-6.467 -10.356 6.470 19 27 19
-5.731 -10.416 6.933 27 33 27
-5.366 -10.457 7.549 33 27 24
-4.514 -10.523 7.965 24 33 24
-3.928 -10.574 8.492 33 40 27
-2.793 -10.655 8.795 19 33 27
-7.355 -10.413 -14.055 19 18 24
-5.630 -10.522 -14.033 33 19 19
-6.429 -10.504 -12.900 33 40 33
-6.851 -10.507 -11.936 33 33 33
-7.772 -10.482 -10.755 27 33 18
-8.053 -10.491 -9.855 19 24 18
-8.207 -10.505 -9.011 19 24 18
-8.533 -10.512 -8.095 18 18 18
-8.890 -10.516 -7.166 19 18 18
-8.873 -10.539 -6.399 18 18 18
-9.228 -10.544 -5.474 18 18 18
-9.590 -10.547 -4.546 18 18 18
-9.623 -10.569 -3.761 18 18 18
-9.846 -10.580 -2.896 18 18 18
-9.664 -10.611 -2.204 18 18 18
-9.888 -10.622 -1.340 18 18 18
-9.624 -10.657 -0.683 19 18 18
-9.607 -10.681 0.077 24 18 18
-9.489 -10.709 0.795 18 18 18
-9.513 -10.731 1.572 18 18 18
-9.460 -10.756 2.316 19 18 18
-8.822 -10.810 2.815 18 18 18
-8.881 -10.830 3.606 18 24 18
-8.185 -10.888 4.080 19 18 19
-7.915 -10.924 4.734 24 19 18
-7.444 -10.970 5.304 24 19 18
-7.149 -11.007 5.947 19 24 19
-6.764 -11.049 6.553 24 27 24
-5.983 -11.112 6.997 24 27 19
-5.673 -11.151 7.635 24 27 33
-4.848 -11.215 8.062 33 33 27
-4.215 -11.270 8.569 27 33 33
-3.088 -11.351 8.876 33 37 33
-7.344 -11.128 -14.100 24 24 19
-5.364 -11.253 -14.191 33 24 27
-6.169 -11.235 -13.055 33 33 27
-7.081 -11.210 -11.876 24 27 19
-7.675 -11.201 -10.837 19 18 24
-7.994 -11.207 -9.921 24 24 18
-8.206 -11.219 -9.052 24 18 18
-8.586 -11.221 -8.112 18 24 18
-8.947 -11.225 -7.181 18 18 19
-9.152 -11.236 -6.319 24 18 18
-9.109 -11.261 -5.564 18 18 18
-9.527 -11.261 -4.613 18 18 18
-9.436 -11.288 -3.881 18 18 18
-9.382 -11.313 -3.134 18 18 18
-9.747 -11.316 -2.208 18 18 18
-9.798 -11.336 -1.417 19 18 18
-9.680 -11.364 -0.699 18 18 18
-9.571 -11.391 0.023 18 18 18
-9.226 -11.432 0.645 18 18 18
-9.353 -11.447 1.465 18 18 18
-9.173 -11.479 2.156 27 18 18
-8.982 -11.510 2.843 18 18 18
-8.529 -11.556 3.419 18 18 18
-8.360 -11.587 4.115 18 18 18
-7.991 -11.628 4.726 19 18 19
-7.651 -11.668 5.350 19 24 19
-7.116 -11.718 5.894 24 24 24
-6.786 -11.757 6.524 33 24 27
-6.522 -11.793 7.180 27 33 33
-5.909 -11.847 7.693 24 24 33
-4.918 -11.921 8.053 27 37 37
-4.431 -11.968 8.618 24 40 37
-3.477 -12.041 8.996 33 50 40
7.566 -12.287 -32.755 24 27 24
8.890 -12.379 -32.553 33 24 19
8.331 -12.372 -31.490 24 27 24
8.312 -12.394 -30.675 24 24 27
9.146 -12.461 -30.247 24 18 24
-6.787 -11.874 -14.386 24 19 24
-5.400 -11.969 -14.216 33 24 18
-5.693 -11.976 -13.305 27 33 24
-7.007 -11.929 -11.949 24 24 19
-7.236 -11.938 -11.069 24 19 18
-7.938 -11.924 -9.986 24 24 18
-7.834 -11.951 -9.254 19 33 18
-8.268 -11.951 -8.290 27 19 18
-8.455 -11.963 -7.434 19 18 18
-8.937 -11.959 -6.452 18 18 18
-8.881 -11.984 -5.702 19 18 18
-9.296 -11.984 -4.752 24 18 18
-8.992 -12.022 -4.111 18 18 18
-9.508 -12.016 -3.120 18 18 18
-10.003 -12.012 -2.139 18 18 18
-9.734 -12.047 -1.484 18 18 18
-9.692 -12.072 -0.733 24 18 18
-9.727 -12.092 0.049 18 18 18
-9.317 -12.136 0.644 18 19 19
-9.157 -12.165 1.344 18 18 18
-8.966 -12.197 2.030 19 19 18
-9.036 -12.215 2.826 19 18 18
-8.730 -12.254 3.464 19 18 18
-8.576 -12.284 4.165 18 18 18
-8.111 -12.329 4.737 24 19 19
-7.971 -12.359 5.444 19 24 24
-7.249 -12.419 5.910 24 27 19
-7.223 -12.442 6.664 24 33 27
-6.726 -12.490 7.224 33 33 27
-5.780 -12.563 7.601 24 27 33
-5.358 -12.607 8.193 33 40 27
-4.789 -12.659 8.725 33 44 24
-4.106 -12.717 9.212 27 37 33
-2.923 -12.802 9.498 24 37 33
7.620 -13.025 -32.822 37 33 56
8.260 -13.082 -32.308 52 44 56
8.422 -13.113 -31.575 44 40 44
8.350 -13.132 -30.735 50 27 50
9.001 -13.189 -30.224 44 37 40
9.123 -13.219 -29.474 33 24 37
8.663 -13.216 -28.460 24 27 24
9.074 -13.260 -27.842 24 27 27
9.029 -13.281 -27.017 24 24 24
8.392 -13.270 -25.929 33 24 19
8.406 -13.293 -25.133 19 18 18
-6.565 -12.602 -14.525 24 19 18
-5.383 -12.687 -14.264 37 24 24
-5.843 -12.685 -13.280 33 27 24
-6.758 -12.658 -12.098 27 19 18
-7.216 -12.654 -11.119 27 18 18
-7.897 -12.639 -10.044 18 19 19
-7.979 -12.657 -9.231 33 24 19
-8.383 -12.657 -8.280 18 24 18
-8.502 -12.672 -7.454 24 19 18
-8.885 -12.674 -6.514 24 19 18
-9.083 -12.684 -5.656 18 18 18
-9.009 -12.710 -4.916 19 18 18
-8.971 -12.733 -4.160 18 18 18
-9.075 -12.749 -3.344 18 18 18
-9.614 -12.742 -2.344 18 18 18
-9.474 -12.771 -1.634 18 18 18
-9.452 -12.793 -0.874 18 18 18
-9.498 -12.812 -0.088 18 18 18
-9.128 -12.854 0.525 18 18 18
-9.209 -12.872 1.326 18 18 18
-9.039 -12.902 2.022 19 18 18
-8.966 -12.927 2.758 18 19 18
-8.674 -12.964 3.401 24 18 19
-8.513 -12.995 4.100 24 24 18
-8.493 -13.018 4.856 19 24 18
-7.888 -13.072 5.371 27 33 24
-7.598 -13.109 6.015 27 27 24
-7.133 -13.155 6.589 24 24 19
-7.092 -13.179 7.336 33 33 33
-6.081 -13.255 7.685 24 24 33
-5.616 -13.302 8.260 19 40 33
-5.103 -13.351 8.814 33 33 40
-4.447 -13.409 9.312 33 27 33
-3.188 -13.499 9.566 33 37 33
7.666 -13.741 -33.693 73 60 73
8.006 -13.782 -33.042 73 82 76
8.267 -13.819 -32.353 60 64 56
8.145 -13.834 -31.490 56 64 56
8.258 -13.862 -30.736 56 69 63
8.483 -13.897 -30.032 56 68 69
8.396 -13.915 -29.187 64 64 67
8.231 -13.928 -28.308 64 64 60
8.364 -13.957 -27.564 56 60 56
8.226 -13.972 -26.699 50 37 50
8.108 -13.988 -25.843 37 37 50
8.096 -14.009 -25.036 44 37 37
7.860 -14.019 -24.129 37 19 37
7.802 -14.038 -23.303 37 24 27
-6.579 -13.361 -12.997 33 27 18
-6.754 -13.373 -12.140 24 24 24
-6.982 -13.382 -11.261 37 33 24
-7.582 -13.371 -10.221 24 18 18
-7.906 -13.374 -9.303 19 18 18
-7.945 -13.394 -8.510 19 19 18
-8.042 -13.410 -7.692 27 18 18
-8.744 -13.393 -6.615 24 18 18
-8.489 -13.428 -5.952 18 18 18
-8.938 -13.425 -4.986 18 18 18
-8.942 -13.446 -4.211 18 18 18
-9.136 -13.457 -3.358 24 19 18
-9.260 -13.471 -2.534 18 18 18
-9.222 -13.494 -1.780 18 18 18
-9.433 -13.504 -0.922 18 18 18
-9.322 -13.531 -0.201 19 18 18
-9.131 -13.563 0.487 18 18 18
-9.190 -13.581 1.279 18 18 18
-9.130 -13.605 2.020 18 18 18
-8.923 -13.638 2.700 19 18 24
-8.812 -13.665 3.420 19 19 24
-8.431 -13.707 4.026 24 18 18
-8.544 -13.722 4.839 24 18 19
-8.016 -13.773 5.385 19 24 24
-7.880 -13.801 6.093 18 33 27
-7.548 -13.841 6.720 27 27 24
-7.241 -13.879 7.358 24 27 33
-6.431 -13.945 7.790 24 37 33
-5.823 -14.000 8.305 24 27 33
-5.366 -14.046 8.882 19 40 37
-4.679 -14.105 9.367 27 27 24
-3.263 -14.206 9.558 24 33 24
11.744 -14.636 -38.052 132 159 132
10.178 -14.572 -36.514 111 128 117
8.730 -14.514 -35.035 104 117 110
8.023 -14.497 -33.900 85 108 108
7.911 -14.513 -33.041 64 76 79
7.984 -14.539 -32.267 56 64 56
7.958 -14.560 -31.448 52 52 63
7.651 -14.564 -30.502 52 64 67
7.605 -14.584 -29.676 64 68 69
7.507 -14.600 -28.827 68 76 69
7.853 -14.641 -28.180 64 80 67
7.408 -14.639 -27.176 68 69 63
7.579 -14.670 -26.450 60 64 60
7.400 -14.682 -25.568 68 68 63
7.277 -14.698 -24.711 68 69 67
7.071 -14.708 -23.820 69 56 63
7.256 -14.740 -23.102 68 68 63
-7.080 -14.029 -13.598 24 18 18
-7.437 -14.030 -12.661 24 18 18
-7.343 -14.056 -11.923 33 24 19
-7.455 -14.071 -11.095 18 24 19
-7.503 -14.089 -10.297 27 19 19
-7.346 -14.119 -9.588 18 24 18
-7.780 -14.116 -8.622 24 24 18
-8.069 -14.121 -7.721 19 18 19
-8.053 -14.143 -6.953 19 24 18
-8.273 -14.153 -6.084 24 24 18
-8.482 -14.161 -5.221 18 19 19
-8.980 -14.155 -4.235 18 18 18
-9.179 -14.164 -3.379 18 18 18
-9.258 -14.181 -2.575 18 18 18
-9.415 -14.193 -1.738 18 18 18
-9.148 -14.229 -1.083 18 18 18
-9.404 -14.236 -0.206 19 18 18
-9.190 -14.269 0.472 19 18 18
-9.375 -14.279 1.318 18 18 18
-9.220 -14.309 2.019 24 18 18
-8.742 -14.357 2.585 24 19 18
-8.871 -14.370 3.405 24 27 18
-8.961 -14.386 4.207 18 18 18
-8.898 -14.411 4.946 24 18 24
-8.569 -14.450 5.575 27 27 19
-8.242 -14.489 6.203 27 19 24
-7.876 -14.530 6.816 19 33 33
-7.547 -14.570 7.444 27 37 33
-6.775 -14.634 7.892 24 37 37
-6.186 -14.688 8.415 27 33 24
-5.866 -14.727 9.047 19 27 24
-4.729 -14.813 9.349 24 27 27
-3.841 -14.883 9.753 33 24 19
-2.773 -14.965 10.086 33 27 33
10.821 -15.326 -37.667 96 117 118
9.661 -15.282 -36.319 97 117 115
7.697 -15.194 -34.602 99 104 112
7.157 -15.185 -33.545 85 102 97
6.941 -15.195 -32.639 73 82 82
7.460 -15.246 -32.070 60 69 76
7.767 -15.284 -31.403 68 69 63
6.672 -15.245 -30.099 56 68 63
6.807 -15.296 -28.552 64 68 60
7.157 -15.337 -27.907 56 60 67
6.934 -15.345 -27.004 60 64 56
6.832 -15.362 -26.157 64 64 67
7.017 -15.394 -25.438 60 69 63
5.037 -15.303 -23.752 60 68 63
-6.642 -14.706 -16.179 52 50 40
-7.920 -14.655 -14.830 37 33 37
-7.614 -14.693 -14.185 37 37 37
-7.547 -14.718 -13.433 40 24 33
-7.970 -14.715 -12.468 24 19 24
-8.179 -14.724 -11.597 19 18 19
-8.056 -14.751 -10.873 19 24 18
-7.808 -14.787 -10.203 19 18 18
-8.018 -14.796 -9.336 19 19 18
-7.848 -14.826 -8.632 27 18 18
-7.747 -14.852 -7.900 18 18 18
-8.398 -14.837 -6.845 18 18 18
-8.777 -14.836 -5.907 24 18 18
-8.904 -14.849 -5.080 19 18 18
-8.954 -14.867 -4.287 24 18 18
-9.165 -14.876 -3.425 24 18 18
-9.390 -14.884 -2.558 18 18 18
-8.972 -14.928 -1.966 18 18 18
-9.359 -14.926 -1.033 18 18 18
-9.638 -14.932 -0.146 18 18 18
-9.026 -14.987 0.363 18 18 18
-9.400 -14.987 1.288 18 19 18
-9.648 -14.993 2.159 18 19 18
-9.246 -15.036 2.756 18 18 18
-9.397 -15.048 3.585 24 19 18
-9.557 -15.059 4.417 18 24 24
-9.157 -15.103 5.015 19 24 18
-8.809 -15.143 5.635 19 19 18
-8.313 -15.193 6.193 19 27 27
-7.728 -15.246 6.716 27 24 24
-7.566 -15.276 7.414 19 33 27
-7.044 -15.327 7.962 19 33 19
-6.502 -15.379 8.504 24 33 19
-6.005 -15.428 9.065 24 27 33
-5.077 -15.502 9.451 24 27 33
-4.047 -15.582 9.797 18 19 24
-3.047 -15.660 10.157 24 19 33
-8.054 -14.819 -35.334 37 24 56
-7.752 -14.857 -34.678 56 27 60
-6.721 -14.937 -34.365 64 44 82
-6.739 -14.958 -33.560 88 85 102
-6.505 -14.992 -32.872 115 118 112
-6.563 -15.010 -32.048 115 134 130
-5.983 -15.378 -19.653 56 56 60
-6.479 -15.371 -18.645 52 69 56
-7.954 -15.307 -17.202 60 50 50
-8.235 -15.312 -16.295 40 40 50
-8.320 -15.327 -15.474 44 50 37
-8.173 -15.356 -14.759 37 44 37
-8.403 -15.363 -13.877 37 37 33
-8.401 -15.384 -13.098 27 24 24
-8.439 -15.403 -12.303 27 27 19
-8.636 -15.412 -11.437 27 24 24
-8.525 -15.439 -10.709 24 19 24
-8.709 -15.449 -9.851 19 18 18
-8.892 -15.459 -8.996 19 24 19
-8.793 -15.485 -8.263 24 18 18
-8.841 -15.503 -7.468 18 18 18
-9.114 -15.507 -6.576 18 18 18
-9.174 -15.525 -5.777 18 24 27
-9.365 -15.534 -4.922 18 19 18
-9.740 -15.532 -3.990 18 18 18
-9.407 -15.573 -3.361 19 18 18
-9.686 -15.577 -2.472 18 18 19
-9.433 -15.612 -1.810 18 18 19
-9.445 -15.631 -1.036 24 18 18
-9.587 -15.643 -0.208 19 18 19
-9.358 -15.677 0.464 24 18 18
-10.041 -15.658 1.518 19 19 18
-10.150 -15.672 2.331 19 19 18
-10.125 -15.694 3.085 18 18 24
-9.835 -15.731 3.729 24 24 24
-9.575 -15.766 4.386 19 19 18
-9.073 -15.815 4.941 24 24 24
-8.852 -15.849 5.614 19 24 24
-9.055 -15.857 6.461 27 24 27
-8.089 -15.934 6.826 19 24 19
-7.567 -15.984 7.375 19 27 27
-7.466 -16.011 8.097 24 24 24
-6.967 -16.060 8.655 24 27 24
-5.864 -16.145 8.969 24 27 33
-5.321 -16.197 9.512 18 33 33
-4.950 -16.239 10.124 24 33 27
-3.346 -16.353 10.240 24 27 27
-2.085 -16.447 10.496 33 33 33
-7.922 -15.530 -36.237 91 88 108
-7.712 -15.563 -35.537 114 118 121
-7.749 -15.581 -34.723 121 132 129
-7.713 -15.604 -33.942 127 141 138
-7.719 -15.625 -33.143 128 147 138
-7.735 -15.644 -32.339 130 142 134
-7.476 -15.680 -31.665 118 144 130
-7.495 -15.700 -30.861 114 130 127
-7.693 -15.709 -29.975 102 127 118
-7.764 -15.725 -29.149 104 118 117
-7.701 -15.750 -28.385 97 114 104
-7.455 -15.785 -27.706 88 104 102
-7.601 -15.797 -26.848 80 82 76
-7.669 -15.813 -26.026 73 96 79
-7.799 -15.826 -25.176 73 88 82
-7.486 -15.865 -24.530 69 80 73
-7.852 -15.865 -23.575 64 73 69
-7.636 -15.898 -22.885 56 60 63
-8.174 -15.887 -21.853 60 68 63
-8.039 -15.916 -21.128 64 60 63
-8.211 -15.926 -20.265 52 68 60
-8.170 -15.949 -19.498 50 56 56
-8.294 -15.963 -18.658 50 60 56
-8.583 -15.966 -17.745 60 56 50
-8.453 -15.994 -17.020 60 52 33
-8.846 -15.991 -16.063 44 37 37
-8.760 -16.017 -15.320 50 50 40
-8.863 -16.031 -14.494 44 37 27
-8.674 -16.063 -13.798 33 40 24
-8.694 -16.082 -13.010 33 27 27
-9.022 -16.083 -12.087 24 24 19
-9.474 -16.077 -11.111 24 24 24
-9.223 -16.112 -10.444 27 33 18
-9.304 -16.127 -9.632 33 33 19
-9.913 -16.112 -8.592 24 19 19
-9.243 -16.172 -8.109 33 24 18
-10.009 -16.146 -7.002 27 24 19
-9.950 -16.170 -6.254 19 19 19
-9.811 -16.198 -5.542 19 18 18
-9.814 -16.218 -4.768 24 19 19
-10.227 -16.214 -3.821 24 24 19
-10.394 -16.225 -2.980 18 19 18
-10.115 -16.261 -2.329 27 18 19
-10.117 -16.281 -1.559 18 19 18
-9.808 -16.319 -0.921 18 18 19
-9.702 -16.346 -0.198 24 18 18
-9.839 -16.358 0.627 18 18 24
-9.997 -16.368 1.461 19 19 19
-10.189 -16.377 2.308 19 24 19
-10.565 -16.375 3.230 19 24 18
-9.920 -16.433 3.725 19 19 24
-9.674 -16.468 4.388 24 27 24
-9.682 -16.487 5.155 24 24 19
-9.280 -16.531 5.752 24 24 24
-9.088 -16.562 6.436 19 27 18
-8.542 -16.614 6.974 24 27 27
-7.862 -16.675 7.457 24 19 24
-7.422 -16.721 8.040 24 27 24
-6.843 -16.775 8.567 27 18 33
-6.343 -16.825 9.126 18 24 27
-6.160 -16.856 9.814 33 27 24
-4.859 -16.954 10.049 24 33 33
-4.124 -17.017 10.516 33 37 40
-3.022 -17.103 10.835 37 40 33
-1.921 -17.189 11.156 37 50 50
-8.490 -16.199 -36.809 128 151 141
-8.284 -16.232 -36.108 134 153 144
-8.123 -16.262 -35.387 132 150 144
-7.409 -16.325 -34.925 128 147 147
-8.093 -16.305 -33.807 127 146 144
-8.341 -16.311 -32.894 127 147 136
-8.203 -16.340 -32.162 118 138 130
-8.032 -16.370 -31.448 111 130 123
-8.146 -16.383 -30.601 104 118 118
-8.115 -16.406 -29.822 96 118 112
-8.174 -16.423 -29.001 88 108 99
-8.110 -16.447 -28.239 88 99 97
-8.133 -16.466 -27.437 76 85 82
-8.089 -16.489 -26.666 68 82 82
-8.269 -16.498 -25.793 73 76 73
-8.238 -16.521 -25.017 64 80 69
-8.541 -16.524 -24.091 64 69 69
-8.541 -16.543 -23.303 64 69 67
-8.355 -16.575 -22.600 64 69 67
-8.567 -16.582 -21.717 50 64 60
-8.378 -16.614 -21.016 52 64 60
-8.692 -16.615 -20.089 56 56 50
-8.752 -16.632 -19.277 56 56 56
-9.062 -16.633 -18.354 44 52 44
-8.872 -16.665 -17.656 56 56 52
-8.914 -16.683 -16.856 50 52 52
-9.056 -16.695 -16.011 50 44 37
-9.154 -16.709 -15.187 44 50 33
-9.272 -16.722 -14.353 37 19 27
-9.318 -16.739 -13.555 27 37 19
-9.468 -16.750 -12.709 24 24 24
-9.430 -16.773 -11.948 33 24 18
-9.830 -16.768 -10.995 33 33 19
-9.940 -16.782 -10.171 27 24 19
-10.087 -16.793 -9.331 33 24 19
-9.974 -16.820 -8.605 33 19 24
-9.740 -16.854 -7.933 24 24 19
-10.466 -16.831 -6.845 33 24 19
-10.520 -16.847 -6.049 24 24 19
-10.477 -16.869 -5.295 27 24 18
-10.264 -16.902 -4.615 24 18 18
-10.728 -16.894 -3.647 19 24 18
-10.324 -16.938 -3.049 19 24 18
-10.183 -16.966 -2.340 18 24 19
-10.136 -16.989 -1.590 18 19 18
-10.052 -17.014 -0.857 18 18 19
-10.026 -17.036 -0.100 19 18 18
-10.095 -17.051 0.696 18 24 18
-10.601 -17.040 1.675 24 19 19
-11.129 -17.028 2.663 24 18 18
-10.243 -17.101 3.056 24 24 18
-9.960 -17.138 3.703 24 19 19
-9.738 -17.171 4.375 19 18 18
-9.356 -17.214 4.981 27 24 18
-9.698 -17.213 5.886 24 19 24
-9.226 -17.261 6.454 27 27 27
-8.505 -17.324 6.920 24 27 19
-8.222 -17.361 7.566 19 33 18
-7.557 -17.421 8.056 18 19 24
-7.391 -17.451 8.751 24 33 24
-6.754 -17.509 9.254 33 33 33
-6.545 -17.542 9.932 24 33 27
-5.623 -17.617 10.319 27 33 27
-4.742 -17.690 10.726 33 33 33
-3.872 -17.763 11.138 33 33 37
-3.340 -17.814 11.688 33 40 37
-2.032 -17.914 11.926 24 27 37
-7.011 -17.012 -37.554 132 153 147
-8.771 -16.927 -35.921 132 144 147
-8.567 -16.959 -35.219 127 144 138
-8.539 -16.981 -34.436 127 147 141
-8.809 -16.985 -33.512 118 136 134
-8.583 -17.018 -32.823 121 132 129
-8.538 -17.041 -32.049 108 123 118
-8.542 -17.061 -31.252 97 117 115
-8.467 -17.086 -30.493 99 111 104
-8.260 -17.118 -29.796 97 108 102
-8.522 -17.123 -28.882 80 97 88
-8.463 -17.147 -28.117 80 91 94
-8.508 -17.164 -27.305 76 91 82
-8.632 -17.177 -26.458 69 69 76
-8.544 -17.202 -25.708 60 69 67
-8.683 -17.214 -24.855 56 69 63
-8.927 -17.219 -23.955 56 68 52
-8.831 -17.244 -23.212 56 64 63
-8.804 -17.267 -22.437 56 60 50
-8.980 -17.276 -21.571 50 56 52
-9.044 -17.291 -20.756 44 50 60
-9.221 -17.301 -19.892 40 60 52
-9.398 -17.310 -19.029 52 64 56
-9.046 -17.352 -18.403 50 60 52
-9.319 -17.354 -17.498 56 64 50
-9.518 -17.363 -16.627 52 56 44
-9.350 -17.392 -15.921 37 40 33
-9.448 -17.407 -15.097 50 37 27
-9.624 -17.415 -14.239 33 33 24
-9.774 -17.425 -13.394 33 24 19
-9.826 -17.443 -12.592 33 24 19
-10.271 -17.435 -11.619 33 27 24
-10.384 -17.448 -10.793 33 24 19
-10.402 -17.466 -10.009 33 33 24
-10.578 -17.475 -9.157 24 33 24
-10.402 -17.506 -8.460 37 33 24
-10.313 -17.531 -7.725 27 24 19
-10.668 -17.529 -6.798 24 18 19
-10.892 -17.535 -5.928 24 24 24
-10.772 -17.562 -5.208 19 18 19
-10.739 -17.583 -4.451 24 18 18
-10.520 -17.617 -3.775 19 19 18
-10.986 -17.607 -2.806 24 18 19
-10.061 -17.684 -2.431 19 18 18
-10.358 -17.685 -1.536 24 18 18
-10.270 -17.710 -0.805 19 18 18
-10.312 -17.726 -0.018 18 18 18
-10.721 -17.721 0.921 24 19 24
-10.737 -17.740 1.694 24 18 19
