47.116 -11.170 -15.313
46.886 -11.195 -15.004
46.656 -11.209 -14.694
46.426 -11.234 -14.375
46.216 -11.302 -13.638
45.976 -11.324 -13.359
45.766 -11.379 -12.792
45.536 -11.390 -12.522
45.316 -11.445 -11.954
45.086 -11.474 -11.585
44.866 -11.508 -11.147
44.636 -11.537 -10.788
44.426 -11.581 -10.220
44.196 -11.608 -9.881
43.946 -11.866 -9.660
43.986 -11.682 -9.194
43.726 -11.905 -9.172
43.756 -11.700 -8.845
43.506 -11.951 -8.704
43.556 -11.785 -8.009
4.946 -10.591 3.962
5.176 -10.595 3.891
4.996 -10.400 4.338
5.226 -10.404 4.267
4.706 -10.576 4.033
4.786 -10.415 4.658
4.456 -10.544 3.875
4.536 -10.393 4.629
4.236 -10.554 4.125
4.296 -10.382 4.620
4.076 -10.385 4.781
3.826 -10.362 4.752
3.586 -10.341 4.744
3.346 -10.325 4.785
3.106 -10.318 4.826
2.876 -10.307 4.937
2.646 -10.300 4.978
2.386 -10.260 4.861
2.146 -10.251 4.871
1.916 -10.235 4.923
1.676 -10.228 4.963
1.426 -10.195 4.916
1.186 -10.185 4.917
0.956 -10.169 4.978
0.636 -10.326 4.424
0.716 -10.149 4.980
0.476 -10.142 5.010
0.246 -10.130 5.122
-0.014 -10.100 4.993
-0.254 -10.077 4.955
-0.484 -10.077 5.086
-0.744 -10.037 4.948
-0.984 -10.027 4.959
-1.284 -10.194 4.525
-1.224 -10.007 4.951
-1.454 -10.008 5.091
-1.694 -9.989 5.103
-1.934 -9.970 5.124
-2.164 -9.966 5.205
-2.474 -10.128 4.710
-2.414 -9.942 5.146
-2.714 -10.105 4.672
-2.644 -9.928 5.228
-2.954 -10.087 4.694
-2.894 -9.903 5.160
-3.194 -10.082 4.764
-3.124 -9.898 5.230
-3.364 -9.885 5.311
-3.614 -9.857 5.213
-3.924 -10.019 4.729
-3.854 -9.836 5.205
-4.154 -10.016 4.820
-4.084 -9.834 5.305
-4.404 -9.980 4.742
-4.324 -9.816 5.327
-4.634 -9.974 4.793
-4.574 -9.789 5.249
-4.884 -9.953 4.784
-4.824 -9.765 5.190
-5.134 -9.923 4.646
-5.054 -9.764 5.311
-5.834 -9.892 4.890
-5.994 -9.722 5.545
-5.754 -9.730 5.514
-6.144 -9.804 6.331
-6.324 -9.860 6.908
-6.514 -9.907 7.376
-6.734 -9.913 7.586
-6.954 -9.915 7.736
-7.164 -9.925 7.987
-7.384 -9.941 8.196
-7.584 -9.957 8.526
-7.804 -9.973 8.735
-8.014 -9.989 9.055
-8.244 -9.985 9.135
-8.454 -10.005 9.395
-8.684 -9.995 9.516
-8.904 -9.996 9.656
-9.114 -10.015 9.895
-9.334 -10.020 10.086
-9.554 -10.027 10.306
-9.774 -10.027 10.436
-10.004 -10.025 10.536
-10.224 -10.028 10.707
-10.434 -10.039 10.967
-10.704 -10.001 10.739
-12.204 -10.573 14.436
-11.974 -10.576 14.345
-12.154 -10.376 14.742
-11.914 -10.383 14.701
-13.744 -10.823 17.495
-13.564 -10.787 17.027
-13.744 -10.575 17.394
-13.554 -10.543 16.986
-13.954 -10.839 17.695
-13.924 -10.622 17.872
-14.134 -10.627 18.062
-14.344 -10.638 18.322
-14.574 -10.634 18.403
-14.854 -10.825 18.157
-14.804 -10.630 18.474
-15.494 -10.853 18.767
-15.684 -10.623 19.026
-15.464 -10.633 18.905
-15.914 -10.621 19.126
-16.164 -10.595 19.048
-16.384 -10.596 19.188
-16.584 -10.619 19.487
-16.814 -10.605 19.569
-17.024 -10.609 19.739
-17.244 -10.622 19.909
-17.444 -10.633 20.178
-17.664 -10.635 20.329
-17.854 -10.677 20.737
-18.084 -10.660 20.768
-18.314 -10.645 20.830
-18.534 -10.646 20.980
-18.764 -10.642 21.051
-18.994 -10.639 21.141
-19.194 -10.647 21.371
-19.394 -10.673 21.700
-19.714 -11.010 24.703
-19.564 -10.950 24.076
-19.944 -11.004 24.764
-20.164 -11.005 24.904
-20.374 -11.009 25.074
-20.604 -11.007 25.185
-20.814 -11.013 25.385
-21.024 -11.017 25.565
-21.234 -11.022 25.755
-21.444 -11.040 25.984
-21.664 -11.039 26.095
-21.894 -11.020 26.106
-22.114 -11.021 26.247
-22.324 -11.026 26.437
-22.534 -11.045 26.686
-22.734 -11.053 26.906
-22.954 -11.055 27.067
-23.174 -11.056 27.207
-23.384 -11.061 27.397
-23.584 -11.080 27.636
-23.764 -11.125 28.084
-23.934 -11.158 28.503
-24.144 -11.168 28.753
-24.354 -11.181 28.922
-24.574 -11.182 29.063
-24.784 -11.186 29.243
-24.984 -11.193 29.453
-25.194 -11.198 29.643
-25.404 -11.215 29.863
-25.624 -11.213 29.963
-25.844 -11.199 30.044
-26.054 -11.216 30.254
-26.274 -11.203 30.345
-26.514 -11.195 30.376
-26.744 -11.178 30.417
-26.984 -11.155 30.369
-27.224 -11.133 30.351
-27.444 -11.132 30.471
-27.674 -11.113 30.473
-27.894 -11.112 30.593
-28.114 -11.111 30.713
-28.304 -11.135 31.013
-28.504 -11.143 31.243
-28.694 -11.169 31.572
-28.904 -11.172 31.732
-29.144 -11.159 31.703
-29.374 -11.144 31.764
-29.604 -11.138 31.815
-29.834 -11.120 31.846
-30.044 -11.126 32.046
-30.244 -11.143 32.256
-30.414 -11.190 32.733
-30.614 -11.199 32.974
-30.834 -11.195 33.054
-31.074 -11.175 33.046
-31.294 -11.159 33.097
-31.544 -11.132 33.019
-31.814 -11.086 32.812
-32.084 -11.036 32.565
-32.334 -11.008 32.457
-32.584 -10.979 32.349
-32.814 -10.965 32.420
-33.054 -10.941 32.372
-33.284 -10.933 32.393
-33.564 -10.872 32.127
-33.874 -10.792 31.621
-34.114 -10.767 31.563
-34.374 -10.727 31.436
-34.584 -10.729 31.586
-34.814 -10.720 31.607
-35.054 -10.697 31.569
-35.274 -10.694 31.659
-35.524 -10.659 31.592
-35.784 -10.627 31.444
-36.044 -10.586 31.297
-36.304 -10.553 31.139
-36.544 -10.531 31.110
-36.784 -10.508 31.072
-37.004 -10.507 31.192
-37.244 -10.482 31.124
-37.494 -10.446 31.057
-37.754 -10.416 30.929
-37.984 -10.399 30.960
-38.214 -10.392 31.001
-38.444 -10.373 31.022
-38.684 -10.353 31.014
-38.914 -10.343 31.025
-39.134 -10.331 31.116
-39.404 -10.297 30.948
-39.704 -10.224 30.532
-39.994 -10.156 30.177
-40.274 -10.104 29.900
-40.504 -10.088 29.951
-40.724 -10.086 30.042
-40.964 -10.065 30.033
-41.204 -10.040 29.975
-41.434 -10.037 30.056
-41.694 -9.992 29.869
-41.974 -9.940 29.592
-42.304 -9.847 29.048
-42.614 -9.768 28.562
-42.954 -9.658 27.929
-43.204 -9.631 27.841
-43.444 -9.609 27.812
-43.684 -9.590 27.824
-43.944 -9.559 27.686
-44.204 -9.518 27.549
-44.464 -9.483 27.361
-44.734 -9.440 27.194
-45.014 -9.390 26.937
-45.324 -9.316 26.511
-45.634 -9.228 26.027
-45.914 -9.178 25.780
52.046 -10.611 -20.896
52.276 -10.550 -21.544
51.826 -10.663 -20.359
51.596 -10.694 -19.960
51.366 -10.730 -19.501
51.126 -10.736 -19.301
50.896 -10.760 -19.002
50.656 -10.769 -18.752
50.426 -10.770 -18.612
50.186 -10.779 -18.372
49.946 -10.785 -18.172
49.706 -10.783 -18.071
49.466 -10.785 -17.921
49.236 -10.793 -17.691
48.996 -10.799 -17.481
48.756 -10.804 -17.290
48.526 -10.829 -16.971
48.286 -10.833 -16.801
48.056 -10.841 -16.561
47.816 -10.850 -16.321
47.586 -10.876 -15.992
47.356 -10.884 -15.762
47.136 -10.935 -15.244
46.906 -10.950 -14.925
46.676 -10.978 -14.566
46.446 -11.007 -14.197
46.226 -11.044 -13.728
46.006 -11.098 -13.171
45.776 -11.129 -12.782
45.566 -11.182 -12.234
45.336 -11.219 -11.766
45.116 -11.253 -11.337
44.896 -11.300 -10.860
44.676 -11.333 -10.441
44.456 -11.386 -9.903
44.226 -11.406 -9.514
44.026 -11.487 -8.738
43.806 -11.544 -8.150
43.596 -11.604 -7.513
43.326 -11.807 -7.730
43.376 -11.634 -7.124
6.406 -10.459 3.942
6.656 -10.485 4.020
6.476 -10.286 4.548
6.716 -10.300 4.466
5.706 -10.427 4.175
5.936 -10.442 4.104
5.766 -10.242 4.621
5.996 -10.260 4.600
5.066 -10.236 4.933
5.286 -10.220 4.733
4.826 -10.218 4.954
4.586 -10.194 4.906
4.346 -10.180 4.987
4.106 -10.172 5.008
3.876 -10.160 5.109
3.646 -10.158 5.220
3.406 -10.138 5.221
3.166 -10.118 5.213
2.936 -10.115 5.313
2.696 -10.110 5.374
2.456 -10.087 5.336
2.216 -10.070 5.367
1.976 -10.053 5.409
1.736 -10.029 5.360
1.496 -10.020 5.371
1.246 -9.999 5.363
1.006 -9.981 5.384
0.766 -9.962 5.406
0.536 -9.955 5.436
0.296 -9.939 5.488
0.036 -9.894 5.301
-0.204 -9.888 5.351
-0.434 -9.873 5.423
-0.674 -9.866 5.453
-0.914 -9.843 5.415
-1.154 -9.823 5.417
-1.394 -9.817 5.467
-1.634 -9.798 5.489
-1.874 -9.781 5.530
-2.114 -9.760 5.512
-2.354 -9.754 5.562
-2.584 -9.739 5.624
-2.824 -9.735 5.704
-3.074 -9.706 5.596
-3.314 -9.684 5.568
-3.554 -9.670 5.639
-3.794 -9.651 5.661
-4.024 -9.647 5.731
-4.274 -9.623 5.683
-4.504 -9.609 5.754
-4.744 -9.597 5.735
-4.984 -9.580 5.777
-5.304 -9.738 5.233
-5.234 -9.558 5.748
-5.544 -9.718 5.234
-5.474 -9.538 5.750
-5.694 -9.539 5.890
-5.924 -9.538 6.001
-6.114 -9.573 6.449
-6.294 -9.638 7.026
-6.474 -9.695 7.623
-6.694 -9.700 7.804
-6.914 -9.705 8.004
-7.114 -9.729 8.303
-7.324 -9.740 8.573
-7.544 -9.760 8.822
-7.754 -9.768 9.052
-7.964 -9.792 9.361
-8.194 -9.790 9.462
-8.404 -9.799 9.702
-8.624 -9.805 9.902
-8.844 -9.806 10.042
-9.064 -9.809 10.212
-9.284 -9.825 10.412
-9.504 -9.829 10.592
-9.734 -9.829 10.722
-9.954 -9.832 10.883
-10.174 -9.820 10.994
-10.404 -9.820 11.124
-10.644 -9.798 11.096
-11.684 -10.397 14.630
-11.474 -10.376 14.361
-11.654 -10.179 14.788
-11.434 -10.176 14.627
-11.854 -10.190 15.057
-12.094 -10.185 15.118
-12.354 -10.401 15.061
-12.304 -10.194 15.358
-12.564 -10.410 15.301
-12.514 -10.213 15.607
-12.754 -10.444 15.730
-12.724 -10.218 15.788
-12.954 -10.465 15.999
-12.894 -10.272 16.355
-13.144 -10.499 16.427
-13.104 -10.282 16.605
-13.344 -10.523 16.737
-13.324 -10.284 16.755
-13.544 -10.295 16.905
-13.734 -10.328 17.314
-13.894 -10.389 17.961
-14.114 -10.391 18.121
-14.324 -10.410 18.360
-14.544 -10.410 18.491
-14.754 -10.420 18.741
-15.024 -10.632 18.634
-14.974 -10.420 18.871
-15.244 -10.632 18.754
-15.204 -10.420 18.992
-15.424 -10.418 19.102
-15.634 -10.427 19.342
-15.864 -10.420 19.373
-16.104 -10.403 19.424
-16.324 -10.401 19.515
-16.564 -10.381 19.526
-16.794 -10.375 19.567
-17.034 -10.357 19.598
-17.254 -10.357 19.729
-17.474 -10.357 19.849
-17.694 -10.358 19.999
-17.894 -10.384 20.319
-18.084 -10.411 20.667
-18.294 -10.418 20.888
-18.524 -10.415 20.978
-18.734 -10.419 21.148
-18.944 -10.431 21.428
-19.154 -10.443 21.588
-19.374 -10.448 21.778
-19.564 -10.724 22.218
-19.554 -10.478 22.157
-19.694 -10.786 24.791
-19.534 -10.729 24.203
-19.914 -10.783 24.881
-20.144 -10.765 24.913
-20.364 -10.780 25.102
-20.564 -10.788 25.332
-20.774 -10.794 25.532
-20.984 -10.811 25.752
-21.204 -10.813 25.902
-21.434 -10.798 25.963
-21.644 -10.803 26.154
-21.854 -10.805 26.304
-22.064 -10.820 26.503
-22.274 -10.828 26.733
-22.494 -10.828 26.854
-22.704 -10.833 27.054
-22.914 -10.848 27.243
-23.144 -10.835 27.325
-23.364 -10.833 27.435
-23.584 -10.832 27.546
-23.764 -10.864 27.954
-23.924 -10.918 28.512
-24.134 -10.935 28.731
-24.334 -10.945 28.981
-24.544 -10.960 29.171
-24.754 -10.962 29.321
-24.974 -10.963 29.471
-25.174 -10.971 29.691
-25.394 -10.972 29.832
-25.604 -10.974 29.992
-25.824 -10.974 30.112
-26.024 -10.993 30.362
-26.274 -10.968 30.293
-26.504 -10.953 30.355
-26.744 -10.926 30.267
-26.994 -10.900 30.188
-27.224 -10.882 30.220
-27.454 -10.879 30.310
-27.684 -10.861 30.332
-27.904 -10.859 30.432
-28.124 -10.856 30.523
-28.314 -10.883 30.872
-28.504 -10.906 31.161
-28.684 -10.937 31.560
-28.884 -10.946 31.800
-29.124 -10.935 31.781
-29.374 -10.899 31.713
-29.594 -10.897 31.814
-29.824 -10.890 31.854
-30.034 -10.894 32.025
-30.254 -10.892 32.135
-30.444 -10.906 32.435
-30.624 -10.944 32.793
-30.824 -10.951 33.003
-31.044 -10.949 33.114
-31.304 -10.910 32.996
-31.564 -10.877 32.828
-31.824 -10.834 32.671
-32.084 -10.800 32.493
-32.324 -10.777 32.455
-32.564 -10.742 32.398
-32.794 -10.736 32.438
-33.024 -10.719 32.480
-33.264 -10.696 32.441
-33.544 -10.641 32.135
-33.844 -10.571 31.749
-34.094 -10.541 31.621
-34.334 -10.520 31.613
-34.554 -10.518 31.713
-34.794 -10.496 31.685
-35.034 -10.472 31.636
-35.264 -10.453 31.658
-35.514 -10.425 31.550
-35.774 -10.385 31.423
-36.044 -10.339 31.226
-36.274 -10.328 31.206
-36.524 -10.305 31.168
-36.744 -10.289 31.230
-36.994 -10.266 31.181
-37.224 -10.244 31.163
-37.474 -10.221 31.125
-37.704 -10.211 31.125
-37.934 -10.195 31.177
-38.174 -10.173 31.148
-38.414 -10.153 31.150
-38.654 -10.141 31.131
-38.884 -10.123 31.152
-39.114 -10.104 31.164
-39.374 -10.071 31.006
-39.694 -9.978 30.462
-40.004 -9.901 29.996
-40.264 -9.861 29.859
-40.474 -9.863 30.019
-40.714 -9.855 30.050
-40.944 -9.835 30.042
-41.184 -9.812 30.013
-41.424 -9.794 30.035
-41.664 -9.770 29.986
-41.954 -9.715 29.670
-42.254 -9.643 29.264
-42.564 -9.555 28.780
-43.204 -9.387 27.790
-42.934 -9.429 27.947
-43.434 -9.367 27.791
-43.664 -9.360 27.832
-43.934 -9.314 27.635
-44.204 -9.271 27.468
-44.464 -9.241 27.340
-44.744 -9.190 27.073
-45.054 -9.105 26.628
-45.324 -9.054 26.371
-45.624 -8.985 25.996
-45.894 -8.951 25.818
53.256 -9.810 -28.266
53.036 -9.898 -27.401
53.056 -9.640 -27.491
53.276 -9.564 -28.207
52.066 -10.350 -21.026
52.296 -10.316 -21.455
51.836 -10.404 -20.469
51.606 -10.436 -20.050
51.376 -10.468 -19.651
51.146 -10.481 -19.351
50.916 -10.511 -18.973
50.676 -10.519 -18.753
50.446 -10.540 -18.483
50.206 -10.541 -18.343
49.966 -10.546 -18.143
49.726 -10.550 -17.973
49.486 -10.552 -17.822
49.256 -10.545 -17.651
49.016 -10.565 -17.402
48.786 -10.574 -17.152
48.546 -10.576 -17.002
48.316 -10.600 -16.693
48.076 -10.612 -16.413
47.836 -10.610 -16.312
47.606 -10.640 -15.933
47.376 -10.650 -15.683
47.146 -10.682 -15.275
46.916 -10.710 -14.916
46.696 -10.746 -14.457
46.466 -10.774 -14.098
46.246 -10.815 -13.590
46.026 -10.862 -13.112
45.806 -10.916 -12.555
45.586 -10.958 -12.026
45.366 -11.003 -11.578
45.136 -11.020 -11.239
44.916 -11.071 -10.711
44.696 -11.110 -10.223
44.476 -11.141 -9.824
44.266 -11.214 -9.148
44.056 -11.295 -8.371
43.836 -11.328 -7.953
43.626 -11.389 -7.316
43.406 -11.425 -6.857
43.156 -11.665 -6.735
43.186 -11.475 -6.349
42.946 -11.737 -6.069
42.986 -11.556 -5.573
6.956 -10.323 4.515
6.756 -10.095 4.803
6.986 -10.095 4.673
6.536 -10.096 4.944
6.236 -10.278 4.578
6.306 -10.102 5.144
6.066 -10.091 5.125
5.826 -10.075 5.186
5.526 -10.236 4.672
5.606 -10.076 5.316
5.366 -10.059 5.358
5.126 -10.037 5.340
4.886 -10.031 5.390
4.646 -10.013 5.412
4.396 -9.988 5.353
4.176 -9.989 5.494
3.926 -9.967 5.465
3.686 -9.949 5.497
3.456 -9.943 5.538
3.216 -9.927 5.599
2.976 -9.918 5.610
2.746 -9.908 5.731
2.496 -9.881 5.643
2.266 -9.875 5.703
2.016 -9.851 5.645
1.776 -9.829 5.627
1.526 -9.805 5.578
1.296 -9.792 5.660
1.056 -9.786 5.720
0.806 -9.760 5.642
0.566 -9.739 5.634
0.326 -9.718 5.615
0.076 -9.696 5.597
-0.154 -9.694 5.698
-0.384 -9.679 5.759
-0.634 -9.654 5.701
-0.864 -9.653 5.811
-1.094 -9.636 5.853
-1.344 -9.611 5.784
-1.584 -9.594 5.826
-1.814 -9.590 5.896
-2.064 -9.567 5.868
-2.294 -9.565 5.968
-2.544 -9.540 5.900
-2.784 -9.517 5.862
-3.014 -9.506 5.983
-3.254 -9.502 6.064
-3.494 -9.479 6.025
-3.734 -9.458 6.007
-3.974 -9.453 6.078
-4.214 -9.430 6.029
-4.454 -9.415 6.101
-4.684 -9.409 6.151
-4.924 -9.395 6.223
-5.154 -9.389 6.273
-5.404 -9.352 6.186
-5.624 -9.367 6.385
-5.874 -9.331 6.308
-6.074 -9.374 6.726
-6.254 -9.428 7.283
-6.424 -9.490 7.950
-6.644 -9.492 8.101
-6.864 -9.510 8.330
-7.074 -9.521 8.590
-7.274 -9.546 8.909
-7.504 -9.545 9.029
-7.714 -9.570 9.339
-7.914 -9.582 9.618
-8.134 -9.587 9.809
-8.354 -9.601 9.998
-8.574 -9.606 10.188
-8.784 -9.614 10.418
-9.004 -9.619 10.609
-9.234 -9.620 10.749
-9.454 -9.620 10.869
-9.684 -9.620 11.000
-9.904 -9.620 11.130
-10.134 -9.624 11.300
-10.354 -9.624 11.431
-10.544 -9.658 11.869
-11.594 -9.990 15.184
-11.384 -9.971 14.944
-11.804 -9.994 15.374
-12.034 -9.993 15.484
-12.254 -9.993 15.605
-12.474 -9.999 15.815
-12.684 -10.003 15.995
-12.894 -10.025 16.274
-13.064 -10.078 16.822
-13.294 -10.078 16.942
-13.514 -10.078 17.072
-13.734 -10.082 17.253
-13.894 -10.138 17.840
-14.104 -10.163 18.149
-14.304 -10.172 18.399
-14.524 -10.174 18.549
-14.734 -10.191 18.759
-14.944 -10.204 19.059
-15.164 -10.203 19.169
-15.374 -10.209 19.369
-15.624 -10.196 19.340
-15.844 -10.187 19.481
-16.074 -10.180 19.522
-16.284 -10.186 19.722
-16.504 -10.188 19.872
-16.744 -10.167 19.864
-16.984 -10.160 19.895
-17.224 -10.136 19.846
-17.464 -10.117 19.868
-17.684 -10.118 19.998
-17.914 -10.102 20.050
-18.134 -10.104 20.210
-18.314 -10.150 20.658
-18.524 -10.155 20.858
-18.734 -10.175 21.107
-18.934 -10.197 21.386
-19.144 -10.203 21.587
-19.354 -10.212 21.837
-19.524 -10.261 22.324
-19.674 -10.556 24.799
-19.554 -10.457 23.934
-19.894 -10.559 24.969
-20.114 -10.545 25.050
-20.334 -10.547 25.201
-20.514 -10.589 25.599
-20.744 -10.587 25.709
-20.964 -10.574 25.790
-21.174 -10.589 25.990
-21.384 -10.596 26.210
-21.594 -10.604 26.430
-21.804 -10.620 26.639
-22.004 -10.628 26.869
-22.224 -10.628 26.990
-22.454 -10.625 27.080
-22.654 -10.635 27.340
-22.874 -10.636 27.481
-23.114 -10.613 27.442
-23.334 -10.610 27.533
-23.544 -10.616 27.733
-23.744 -10.636 27.992
-23.914 -10.686 28.500
-24.084 -10.721 28.939
-24.284 -10.747 29.268
-24.514 -10.739 29.298
-24.734 -10.725 29.370
-24.954 -10.726 29.510
-25.164 -10.743 29.729
-25.374 -10.745 29.880
-25.604 -10.730 29.941
-25.804 -10.746 30.150
-26.034 -10.743 30.241
-26.254 -10.729 30.312
-26.504 -10.703 30.244
-26.764 -10.659 30.057
-27.004 -10.636 30.029
-27.234 -10.631 30.089
-27.454 -10.631 30.220
-27.674 -10.618 30.301
-27.894 -10.618 30.431
-28.124 -10.611 30.472
-28.344 -10.606 30.543
-28.534 -10.635 30.901
-28.714 -10.665 31.290
-28.904 -10.687 31.569
-29.124 -10.687 31.700
-29.334 -10.689 31.850
-29.564 -10.671 31.872
-29.794 -10.669 31.972
-30.014 -10.665 32.053
-30.244 -10.647 32.074
-30.454 -10.652 32.264
-30.654 -10.669 32.484
-30.874 -10.657 32.585
-31.104 -10.652 32.655
-31.344 -10.627 32.587
-31.574 -10.612 32.649
-31.814 -10.589 32.610
-32.064 -10.562 32.532
-32.294 -10.542 32.524
-32.534 -10.530 32.505
-32.774 -10.509 32.496
-33.004 -10.492 32.528
-33.254 -10.466 32.449
-33.524 -10.418 32.223
-33.794 -10.365 31.936
-34.064 -10.319 31.729
-34.294 -10.301 31.760
-34.544 -10.275 31.682
-34.774 -10.268 31.723
-35.014 -10.246 31.704
-35.254 -10.224 31.676
-35.504 -10.186 31.579
-35.734 -10.177 31.589
-35.984 -10.140 31.502
-36.224 -10.116 31.444
-36.464 -10.106 31.455
-36.704 -10.083 31.406
-36.954 -10.057 31.338
-37.194 -10.022 31.271
-37.434 -10.009 31.242
-37.684 -9.976 31.204
-37.904 -9.971 31.265
-38.134 -9.965 31.315
-38.374 -9.944 31.307
-38.604 -9.926 31.328
-38.834 -9.919 31.369
-39.094 -9.878 31.222
-39.364 -9.833 31.045
-39.694 -9.732 30.391
-39.994 -9.663 30.025
-40.264 -9.615 29.798
-40.484 -9.615 29.928
-40.704 -9.613 30.029
-40.934 -9.594 30.040
-41.164 -9.589 30.101
-41.394 -9.570 30.113
-41.644 -9.542 30.014
-41.924 -9.493 29.778
-42.214 -9.426 29.442
-42.524 -9.350 28.976
-43.174 -9.161 27.858
-42.874 -9.233 28.253
-43.444 -9.116 27.661
-43.704 -9.085 27.523
-43.974 -9.038 27.306
-44.234 -8.998 27.188
-44.504 -8.954 27.001
-44.804 -8.894 26.625
-45.074 -8.847 26.408
-45.314 -8.824 26.380
-45.614 -8.755 26.004
51.866 -10.176 -20.300
52.086 -10.122 -20.858
51.626 -10.191 -19.981
51.396 -10.219 -19.632
51.166 -10.248 -19.253
50.936 -10.274 -18.934
50.696 -10.277 -18.764
50.456 -10.289 -18.484
50.226 -10.312 -18.185
49.996 -10.321 -17.955
49.746 -10.318 -17.854
49.516 -10.326 -17.634
49.276 -10.331 -17.434
49.036 -10.319 -17.333
48.796 -10.336 -17.123
48.566 -10.342 -16.923
48.326 -10.349 -16.703
48.096 -10.361 -16.423
47.856 -10.363 -16.263
47.626 -10.391 -15.914
47.396 -10.397 -15.714
47.166 -10.444 -15.236
46.936 -10.462 -14.886
46.716 -10.509 -14.418
46.486 -10.538 -14.050
46.266 -10.581 -13.501
46.046 -10.629 -13.014
45.826 -10.669 -12.505
45.606 -10.715 -12.047
45.386 -10.751 -11.599
45.166 -10.800 -11.101
44.946 -10.841 -10.583
44.716 -10.873 -10.164
44.496 -10.923 -9.666
44.286 -10.988 -8.959
44.096 -11.090 -8.054
43.876 -11.131 -7.526
43.666 -11.206 -6.830
43.446 -11.242 -6.371
39.376 -12.405 3.689
39.146 -12.409 3.869
39.196 -12.241 4.404
39.436 -12.257 4.352
7.966 -10.186 4.806
8.196 -10.197 4.695
8.026 -10.000 5.252
8.246 -10.010 5.121
7.706 -10.151 4.618
7.786 -9.993 5.293
7.486 -10.160 4.858
7.546 -9.979 5.364
7.236 -10.118 4.711
7.316 -9.973 5.415
7.076 -9.952 5.406
6.826 -9.926 5.328
6.596 -9.924 5.429
6.356 -9.908 5.480
6.126 -9.904 5.561
5.886 -9.890 5.632
5.646 -9.871 5.644
5.406 -9.860 5.634
5.166 -9.842 5.656
4.936 -9.825 5.707
4.686 -9.804 5.689
4.446 -9.793 5.680
4.216 -9.793 5.810
3.976 -9.759 5.753
3.736 -9.755 5.833
3.496 -9.735 5.835
3.256 -9.728 5.875
3.016 -9.708 5.877
2.786 -9.691 5.908
2.546 -9.686 5.969
2.296 -9.648 5.872
2.056 -9.643 5.932
1.816 -9.623 5.934
1.576 -9.602 5.925
1.336 -9.595 5.966
1.096 -9.576 5.978
0.856 -9.556 5.979
0.616 -9.534 5.951
0.376 -9.527 5.992
0.136 -9.508 6.003
-0.104 -9.487 5.995
-0.344 -9.465 5.976
-0.594 -9.445 5.968
-0.824 -9.441 6.048
-1.064 -9.420 6.030
-1.304 -9.401 6.052
-1.534 -9.401 6.172
-1.764 -9.399 6.282
-2.004 -9.377 6.254
-2.244 -9.360 6.296
-2.484 -9.355 6.356
-2.714 -9.339 6.408
-2.954 -9.317 6.389
-3.194 -9.309 6.410
-3.434 -9.293 6.461
-3.674 -9.272 6.453
-3.914 -9.252 6.455
-4.154 -9.247 6.515
-4.404 -9.222 6.447
-4.634 -9.220 6.557
-4.864 -9.208 6.659
-5.104 -9.183 6.590
-5.344 -9.165 6.622
-5.584 -9.161 6.692
-5.814 -9.145 6.744
-6.034 -9.161 6.953
-6.224 -9.194 7.372
-6.404 -9.253 7.989
-6.604 -9.279 8.328
-6.814 -9.303 8.627
-7.034 -9.309 8.827
-7.244 -9.328 9.067
-7.434 -9.360 9.485
-7.644 -9.384 9.784
-7.864 -9.386 9.935
-8.084 -9.394 10.165
-8.294 -9.412 10.394
-8.524 -9.411 10.505
-8.754 -9.399 10.606
-8.964 -9.418 10.855
-9.194 -9.406 10.956
-9.414 -9.421 11.146
-9.634 -9.425 11.326
-9.854 -9.425 11.446
-10.084 -9.415 11.578
-10.304 -9.415 11.708
-10.964 -9.935 14.365
-10.774 -9.908 14.026
-10.924 -9.724 14.613
-10.714 -9.714 14.363
-12.204 -9.798 15.941
-11.964 -9.806 15.910
-12.404 -9.810 16.221
-12.654 -9.786 16.163
-12.854 -9.814 16.521
-13.064 -9.834 16.771
-13.264 -9.846 17.051
-13.474 -9.864 17.290
-13.704 -9.851 17.371
-13.894 -9.891 17.759
-14.094 -9.904 18.049
-14.294 -9.931 18.388
-14.494 -9.952 18.657
-14.724 -9.951 18.768
-14.934 -9.956 18.968
-15.134 -9.983 19.307
-15.344 -9.988 19.497
-15.584 -9.979 19.508
-15.834 -9.955 19.459
-16.064 -9.939 19.511
-16.284 -9.938 19.631
-16.504 -9.939 19.762
-16.724 -9.940 19.912
-16.944 -9.943 20.072
-17.184 -9.922 20.064
-17.424 -9.900 20.036
-17.654 -9.895 20.096
-17.874 -9.897 20.256
-18.094 -9.897 20.387
-18.294 -9.922 20.696
-18.514 -9.913 20.837
-18.734 -9.911 20.938
-18.944 -9.933 21.217
-19.114 -9.980 21.694
-19.304 -10.012 22.093
-19.454 -10.086 22.779
-19.894 -10.310 24.868
-19.694 -10.287 24.569
-20.094 -10.322 25.148
-20.294 -10.343 25.407
-20.504 -10.348 25.598
-20.714 -10.352 25.778
-20.924 -10.371 26.017
-21.134 -10.374 26.187
-21.344 -10.379 26.378
-21.564 -10.394 26.567
-21.754 -10.407 26.857
-21.974 -10.409 27.017
-22.174 -10.430 27.276
-22.394 -10.428 27.377
-22.624 -10.414 27.458
-22.854 -10.405 27.469
-23.074 -10.406 27.619
-23.304 -10.390 27.671
-23.514 -10.395 27.861
-23.714 -10.417 28.140
-23.864 -10.488 28.786
-24.054 -10.515 29.125
-24.264 -10.519 29.306
-24.484 -10.518 29.416
-24.704 -10.518 29.546
-24.924 -10.502 29.598
-25.144 -10.504 29.748
-25.364 -10.501 29.839
-25.594 -10.494 29.879
-25.804 -10.498 30.060
-26.024 -10.496 30.160
-26.254 -10.480 30.211
-26.514 -10.448 30.063
-26.764 -10.411 29.966
-26.994 -10.405 30.017
-27.214 -10.402 30.107
-27.424 -10.407 30.307
-27.644 -10.393 30.379
-27.874 -10.388 30.449
-28.104 -10.384 30.520
-28.324 -10.370 30.601
-28.534 -10.374 30.772
-28.734 -10.396 31.061
-28.924 -10.419 31.350
-29.104 -10.449 31.729
-29.314 -10.462 31.898
-29.534 -10.450 31.999
-29.764 -10.447 32.080
-29.994 -10.430 32.121
-30.224 -10.423 32.162
-30.434 -10.426 32.322
-30.664 -10.408 32.354
-30.884 -10.407 32.474
-31.104 -10.402 32.535
-31.364 -10.360 32.388
-31.574 -10.361 32.528
-31.814 -10.354 32.559
-32.054 -10.327 32.470
-32.284 -10.310 32.512
-32.514 -10.293 32.553
-32.744 -10.290 32.634
-32.974 -10.269 32.625
-33.234 -10.235 32.448
-33.494 -10.196 32.340
-33.754 -10.151 32.143
-34.004 -10.122 32.035
-34.264 -10.080 31.888
-34.514 -10.052 31.780
-34.764 -10.026 31.702
-34.994 -10.010 31.753
-35.224 -9.999 31.744
-35.464 -9.976 31.706
-35.714 -9.950 31.637
-35.954 -9.929 31.619
-36.184 -9.912 31.660
-36.424 -9.891 31.652
-36.664 -9.869 31.624
-36.914 -9.842 31.536
-37.174 -9.795 31.319
-37.424 -9.773 31.290
-37.644 -9.770 31.381
-37.874 -9.750 31.392
-38.114 -9.741 31.403
-38.354 -9.717 31.355
-38.574 -9.706 31.466
-38.814 -9.695 31.447
-39.064 -9.655 31.330
-39.344 -9.604 31.063
-39.674 -9.509 30.488
-39.974 -9.434 30.043
-40.254 -9.373 29.777
-40.494 -9.361 29.758
-40.694 -9.370 29.998
-40.914 -9.368 30.098
-41.154 -9.348 30.100
-41.394 -9.325 30.062
-41.644 -9.295 29.944
-41.914 -9.251 29.756
-42.184 -9.202 29.520
-42.464 -9.152 29.273
-43.194 -8.895 27.658
-42.834 -9.017 28.441
-43.484 -8.839 27.331
-43.724 -8.816 27.293
-44.014 -8.751 26.977
-44.264 -8.726 26.919
-44.524 -8.685 26.772
-44.814 -8.630 26.465
-45.064 -8.604 26.387
-45.334 -8.559 26.200
51.876 -9.903 -20.449
52.096 -9.865 -20.938
51.646 -9.936 -20.041
51.406 -9.955 -19.792
51.176 -9.963 -19.561
50.936 -9.971 -19.341
50.696 -9.980 -19.101
50.456 -9.984 -18.911
50.226 -10.011 -18.572
49.996 -10.042 -18.183
49.756 -10.040 -18.083
49.536 -10.076 -17.614
49.296 -10.098 -17.345
49.056 -10.089 -17.204
48.826 -10.115 -16.875
48.596 -10.135 -16.616
48.356 -10.145 -16.366
48.126 -10.151 -16.156
47.886 -10.149 -16.055
47.646 -10.160 -15.785
47.416 -10.171 -15.525
47.186 -10.198 -15.176
46.966 -10.243 -14.729
46.736 -10.278 -14.290
46.506 -10.292 -13.980
46.286 -10.339 -13.512
46.066 -10.381 -12.974
45.846 -10.431 -12.476
45.616 -10.459 -12.117
45.396 -10.497 -11.629
45.176 -10.550 -11.091
44.966 -10.610 -10.454
44.746 -10.656 -9.996
44.536 -10.718 -9.339
44.316 -10.775 -8.742
44.116 -10.860 -7.916
43.896 -10.914 -7.358
43.696 -11.000 -6.513
43.476 -11.029 -6.144
32.716 -12.193 7.999
32.956 -12.216 8.037
32.766 -12.026 8.563
33.006 -12.046 8.562
32.486 -12.213 8.258
32.526 -12.009 8.595
32.246 -12.176 8.170
32.296 -12.008 8.715
32.006 -12.171 8.231
32.056 -11.984 8.667
31.766 -12.148 8.193
31.816 -11.968 8.708
31.526 -12.126 8.174
31.586 -11.962 8.759
31.286 -12.106 8.176
31.346 -11.939 8.731
31.046 -12.085 8.168
31.096 -11.913 8.653
30.816 -12.079 8.208
30.866 -11.916 8.813
30.566 -12.039 8.091
30.616 -11.871 8.626
30.336 -12.035 8.161
30.386 -11.866 8.686
9.426 -10.059 4.846
9.656 -10.051 4.626
9.476 -9.867 5.212
9.716 -9.882 5.151
9.206 -10.060 4.987
9.236 -9.848 5.234
8.956 -10.034 4.918
9.006 -9.847 5.344
8.726 -10.032 5.019
8.786 -9.854 5.555
8.496 -10.032 5.149
8.536 -9.826 5.456
8.306 -9.824 5.567
8.076 -9.825 5.697
7.826 -9.785 5.580
7.596 -9.782 5.671
7.366 -9.782 5.791
7.116 -9.759 5.753
6.876 -9.739 5.754
6.656 -9.745 5.964
6.416 -9.721 5.906
6.166 -9.693 5.808
5.926 -9.679 5.879
5.696 -9.673 5.940
5.456 -9.655 5.961
5.216 -9.634 5.953
4.986 -9.638 6.133
4.746 -9.614 6.075
4.506 -9.608 6.126
4.266 -9.592 6.187
4.026 -9.568 6.129
3.786 -9.563 6.189
3.546 -9.538 6.131
3.296 -9.514 6.083
3.056 -9.497 6.124
2.816 -9.476 6.106
2.586 -9.473 6.196
2.336 -9.448 6.138
2.106 -9.435 6.229
1.866 -9.430 6.290
1.616 -9.389 6.153
1.376 -9.381 6.174
1.136 -9.365 6.225
0.906 -9.360 6.296
0.656 -9.336 6.247
0.416 -9.316 6.249
0.186 -9.301 6.310
-0.054 -9.281 6.312
-0.294 -9.271 6.313
-0.534 -9.255 6.364
-0.764 -9.250 6.425
-1.004 -9.230 6.426
-1.254 -9.209 6.408
-1.494 -9.189 6.409
-1.724 -9.183 6.470
-1.954 -9.184 6.600
-2.194 -9.164 6.612
-2.434 -9.148 6.653
-2.674 -9.141 6.694
-2.894 -9.129 6.805
-3.144 -9.119 6.796
-3.384 -9.097 6.778
-3.624 -9.080 6.809
-3.864 -9.060 6.821
-4.084 -9.063 6.981
-4.334 -9.041 6.953
-4.564 -9.036 7.013
-4.804 -9.016 7.025
-5.044 -8.996 7.026
-5.284 -8.990 7.067
-5.524 -8.969 7.059
-5.764 -8.951 7.080
-5.984 -8.955 7.270
-6.184 -8.981 7.599
-6.364 -9.035 8.157
-6.564 -9.077 8.565
-6.764 -9.103 8.894
-6.984 -9.107 9.074
-7.194 -9.120 9.364
-7.404 -9.143 9.653
-7.604 -9.174 10.042
-7.814 -9.191 10.261
-8.034 -9.197 10.471
-8.254 -9.204 10.681
-8.464 -9.209 10.872
-8.694 -9.208 10.992
-8.914 -9.214 11.192
-9.124 -9.230 11.401
-9.354 -9.230 11.522
-9.584 -9.217 11.613
-9.814 -9.210 11.654
-10.044 -9.213 11.814
-10.274 -9.200 11.905
-10.544 -9.662 13.825
-10.674 -9.504 14.620
-10.474 -9.474 14.241
-10.894 -9.506 14.780
-12.804 -9.616 16.808
-12.584 -9.611 16.618
-13.024 -9.619 16.978
-13.244 -9.619 17.099
-13.444 -9.642 17.398
-13.664 -9.648 17.598
-13.874 -9.653 17.788
-14.084 -9.672 18.037
-14.284 -9.686 18.337
-14.484 -9.713 18.686
-14.694 -9.731 18.905
-14.914 -9.731 19.036
-15.124 -9.739 19.266
-15.354 -9.737 19.366
-15.564 -9.743 19.576
-15.784 -9.746 19.737
-16.004 -9.744 19.837
-16.234 -9.739 19.908
-16.474 -9.720 19.919
-16.704 -9.717 20.010
-16.934 -9.702 20.071
-17.164 -9.697 20.132
-17.374 -9.705 20.362
-17.614 -9.681 20.314
-17.854 -9.663 20.335
-18.034 -9.706 20.763
-18.254 -9.708 20.913
-18.474 -9.708 21.034
-18.684 -9.713 21.224
-18.904 -9.714 21.374
-19.084 -9.763 21.862
-19.234 -9.835 22.528
-19.364 -9.917 23.314
-19.604 -10.144 23.397
-19.574 -9.925 23.534
-19.884 -10.062 24.777
-19.754 -9.968 23.962
-20.054 -10.116 25.325
-20.264 -10.121 25.515
-20.464 -10.142 25.794
-20.684 -10.146 25.965
-20.904 -10.133 26.056
-21.124 -10.145 26.205
-21.324 -10.157 26.485
-21.514 -10.182 26.804
-21.714 -10.201 27.054
-21.924 -10.208 27.264
-22.154 -10.206 27.364
-22.374 -10.201 27.435
-22.594 -10.190 27.546
-22.824 -10.184 27.597
-23.074 -10.160 27.548
-23.284 -10.163 27.709
-23.494 -10.165 27.869
-23.674 -10.213 28.347
-23.834 -10.268 28.914
-24.024 -10.294 29.243
-24.224 -10.299 29.443
-24.464 -10.292 29.484
-24.674 -10.296 29.654
-24.894 -10.294 29.765
-25.124 -10.275 29.766
-25.354 -10.272 29.867
-25.564 -10.277 30.047
-25.794 -10.260 30.088
-26.024 -10.251 30.109
-26.264 -10.230 30.091
-26.494 -10.211 30.102
-26.724 -10.202 30.113
-26.944 -10.204 30.273
-27.174 -10.186 30.295
-27.394 -10.184 30.395
-27.634 -10.163 30.387
-27.864 -10.146 30.428
-28.094 -10.139 30.469
-28.304 -10.141 30.619
-28.524 -10.144 30.790
-28.714 -10.166 31.059
-28.904 -10.192 31.398
-29.084 -10.220 31.747
-29.304 -10.219 31.867
-29.524 -10.218 31.977
-29.744 -10.219 32.118
-29.954 -10.219 32.248
-30.184 -10.217 32.349
-30.414 -10.199 32.370
-30.624 -10.203 32.550
-30.864 -10.181 32.532
-31.104 -10.157 32.474
-31.344 -10.132 32.416
-31.574 -10.114 32.437
-31.814 -10.106 32.468
-32.024 -10.106 32.598
-32.264 -10.087 32.610
-32.494 -10.066 32.601
-32.714 -10.066 32.722
-32.954 -10.044 32.703
-33.204 -10.013 32.555
-33.464 -9.972 32.428
-33.714 -9.942 32.300
-33.964 -9.915 32.212
-34.224 -9.875 32.085
-34.474 -9.848 31.997
-34.724 -9.808 31.869
-34.964 -9.798 31.870
-35.194 -9.777 31.852
-35.434 -9.756 31.843
-35.664 -9.738 31.865
-35.914 -9.711 31.787
-36.164 -9.684 31.698
-36.394 -9.667 31.730
-36.634 -9.647 31.731
-36.884 -9.617 31.603
-37.144 -9.575 31.456
-37.394 -9.550 31.398
-37.614 -9.547 31.489
-37.834 -9.544 31.569
-38.064 -9.527 31.611
-38.314 -9.502 31.552
-38.534 -9.498 31.623
-38.794 -9.454 31.446
-39.054 -9.423 31.308
-39.324 -9.378 31.121
-39.664 -9.266 30.467
-39.954 -9.196 30.082
-40.224 -9.150 29.875
-40.484 -9.121 29.767
-40.694 -9.123 29.917
-40.894 -9.142 30.156
-41.114 -9.126 30.218
-41.364 -9.101 30.149
-41.614 -9.074 30.061
-41.904 -9.007 29.725
-42.194 -8.952 29.409
-42.434 -8.931 29.390
-43.484 -8.592 27.250
-43.154 -8.687 27.825
-43.774 -8.529 26.964
-44.024 -8.499 26.836
-44.294 -8.454 26.649
-44.574 -8.405 26.403
-44.834 -8.362 26.245
-45.064 -8.357 26.306
51.656 -9.668 -20.260
51.886 -9.622 -20.708
51.416 -9.680 -19.980
51.176 -9.679 -19.860
50.946 -9.692 -19.570
50.696 -9.683 -19.559
50.456 -9.674 -19.418
50.216 -9.666 -19.388
47.886 -9.844 -16.493
48.116 -9.832 -16.773
47.676 -9.929 -15.667
47.436 -9.935 -15.457
47.206 -9.964 -15.088
46.986 -9.999 -14.649
46.756 -10.044 -14.201
46.526 -10.059 -13.891
46.306 -10.087 -13.533
46.076 -10.137 -13.025
45.866 -10.178 -12.497
45.636 -10.224 -12.049
45.416 -10.260 -11.580
45.196 -10.308 -11.102
44.976 -10.347 -10.604
44.756 -10.397 -10.106
44.336 -10.544 -8.613
44.556 -10.489 -9.181
44.136 -10.629 -7.787
43.926 -10.687 -7.180
43.726 -10.773 -6.344
43.516 -10.841 -5.728
43.266 -11.093 -5.467
43.296 -10.880 -5.239
33.926 -12.059 8.089
34.166 -12.066 8.049
33.986 -11.898 8.714
34.216 -11.899 8.603
33.706 -12.067 8.309
33.746 -11.875 8.686
33.466 -12.043 8.261
33.516 -11.880 8.866
33.226 -12.024 8.283
33.276 -11.857 8.837
33.046 -11.862 9.028
32.806 -11.838 8.979
32.576 -11.837 9.090
32.336 -11.817 9.091
32.096 -11.795 9.063
31.866 -11.793 9.164
31.626 -11.772 9.155
31.386 -11.751 9.147
31.146 -11.733 9.168
30.906 -11.723 9.169
30.666 -11.682 9.032
30.426 -11.664 9.053
30.136 -11.823 8.529
30.176 -11.636 8.955
29.896 -11.802 8.511
29.936 -11.610 8.887
29.656 -11.777 8.453
29.696 -11.592 8.909
29.406 -11.746 8.315
29.456 -11.565 8.820
29.156 -11.709 8.227
29.206 -11.534 8.682
10.186 -9.890 5.000
10.406 -9.883 4.780
10.246 -9.722 5.535
10.466 -9.717 5.345
9.936 -9.867 4.962
10.016 -9.722 5.665
9.776 -9.699 5.627
9.536 -9.684 5.698
9.306 -9.677 5.729
9.066 -9.661 5.780
8.836 -9.659 5.881
8.596 -9.644 5.952
8.366 -9.639 6.013
8.126 -9.623 6.064
7.886 -9.614 6.075
7.656 -9.598 6.136
7.416 -9.593 6.197
7.176 -9.571 6.169
6.936 -9.549 6.150
6.696 -9.535 6.222
6.456 -9.510 6.163
6.206 -9.490 6.155
5.976 -9.483 6.196
5.736 -9.465 6.227
5.496 -9.458 6.268
5.256 -9.438 6.269
5.016 -9.420 6.291
4.776 -9.396 6.243
4.536 -9.392 6.313
4.306 -9.375 6.355
4.056 -9.351 6.306
3.806 -9.327 6.258
3.576 -9.323 6.329
3.346 -9.308 6.400
3.106 -9.303 6.461
2.856 -9.264 6.353
2.626 -9.259 6.414
2.396 -9.258 6.524
2.156 -9.241 6.566
1.906 -9.219 6.537
1.666 -9.197 6.519
1.426 -9.173 6.471
1.176 -9.148 6.403
0.946 -9.145 6.493
0.716 -9.134 6.604
0.466 -9.111 6.576
0.226 -9.089 6.548
-0.014 -9.083 6.598
-0.264 -9.058 6.540
-0.494 -9.042 6.581
-0.734 -9.023 6.603
-0.974 -9.015 6.624
-1.214 -9.000 6.685
-1.434 -9.001 6.825
-1.674 -8.993 6.856
-1.914 -8.974 6.868
-2.144 -8.959 6.939
-2.384 -8.950 6.950
-2.624 -8.934 7.001
-2.864 -8.916 7.023
-3.104 -8.907 7.033
-3.334 -8.889 7.065
-3.574 -8.873 7.116
-3.814 -8.867 7.167
-4.054 -8.847 7.169
-4.284 -8.844 7.259
-4.524 -8.821 7.221
-4.764 -8.807 7.292
-4.994 -8.805 7.403
-5.224 -8.799 7.443
-5.464 -8.779 7.455
-5.704 -8.765 7.526
-5.924 -8.765 7.656
-6.144 -8.782 7.876
-6.344 -8.813 8.265
-6.514 -8.871 8.872
-6.734 -8.888 9.091
-6.944 -8.899 9.351
-7.154 -8.917 9.590
-7.374 -8.925 9.811
-7.564 -8.955 10.199
-7.764 -8.984 10.558
-7.994 -8.986 10.719
-8.204 -8.992 10.919
-8.424 -9.011 11.158
-8.644 -9.012 11.308
-8.864 -9.016 11.479
-9.094 -9.011 11.549
-9.324 -8.998 11.630
-9.554 -8.994 11.711
-9.774 -8.997 11.871
-10.004 -9.000 12.042
-10.224 -8.999 12.152
-10.644 -9.283 14.748
-10.434 -9.260 14.449
-12.964 -9.424 17.304
-12.694 -9.474 17.551
-13.184 -9.425 17.445
-13.414 -9.411 17.516
-13.644 -9.408 17.607
-13.854 -9.430 17.886
-14.064 -9.436 18.086
-14.274 -9.456 18.345
-14.494 -9.445 18.456
-14.694 -9.483 18.815
-14.904 -9.490 19.035
-15.114 -9.496 19.235
-15.324 -9.513 19.454
-15.544 -9.518 19.644
-15.764 -9.519 19.785
-15.984 -9.522 19.945
-16.214 -9.506 20.006
-16.444 -9.500 20.057
-16.684 -9.478 20.029
-16.914 -9.460 20.060
-17.134 -9.461 20.200
-17.364 -9.459 20.291
-17.584 -9.460 20.431
-17.814 -9.455 20.502
-18.034 -9.456 20.642
-18.244 -9.463 20.862
-18.464 -9.464 20.993
-18.694 -9.448 21.044
-18.874 -9.495 21.522
-19.044 -9.546 22.040
-19.204 -9.601 22.607
-19.354 -9.676 23.303
-19.554 -9.701 23.622
-19.754 -9.723 23.901
-19.924 -9.772 24.399
-20.034 -9.879 25.374
-20.234 -9.900 25.643
-20.444 -9.906 25.843
-20.674 -9.900 25.904
-20.894 -9.902 26.054
-21.094 -9.910 26.284
-21.264 -9.960 26.792
-21.454 -10.000 27.170
-21.664 -10.004 27.350
-21.894 -9.990 27.421
-22.114 -9.986 27.502
-22.354 -9.964 27.483
-22.574 -9.966 27.634
-22.814 -9.943 27.595
-23.044 -9.935 27.616
-23.274 -9.920 27.678
-23.494 -9.920 27.808
-23.654 -9.974 28.365
-23.804 -10.046 29.032
-24.014 -10.050 29.202
-24.224 -10.052 29.362
-24.444 -10.052 29.493
-24.654 -10.068 29.692
-24.874 -10.055 29.783
-25.104 -10.047 29.804
-25.324 -10.049 29.954
-25.554 -10.034 30.026
-25.784 -10.025 30.037
-26.014 -10.007 30.058
-26.254 -9.987 30.060
-26.494 -9.965 30.041
-26.734 -9.941 29.983
-26.954 -9.938 30.074
-27.174 -9.935 30.174
-27.404 -9.920 30.235
-27.614 -9.934 30.415
-27.834 -9.935 30.545
-28.064 -9.919 30.607
-28.274 -9.924 30.787
-28.484 -9.924 30.917
-28.674 -9.950 31.246
-28.864 -9.976 31.575
-29.064 -9.995 31.824
-29.284 -9.996 31.965
-29.494 -9.997 32.105
-29.714 -9.996 32.216
-29.934 -9.994 32.316
-30.174 -9.973 32.308
-30.404 -9.955 32.329
-30.624 -9.955 32.460
-30.854 -9.949 32.510
-31.094 -9.923 32.432
-31.354 -9.882 32.295
-31.574 -9.878 32.375
-31.804 -9.864 32.447
-32.014 -9.864 32.577
-32.234 -9.864 32.707
-32.474 -9.841 32.669
-32.704 -9.834 32.710
-32.934 -9.818 32.761
-33.174 -9.791 32.673
-33.424 -9.763 32.575
-33.684 -9.723 32.448
-33.924 -9.702 32.429
-34.184 -9.669 32.271
-34.424 -9.633 32.194
-34.684 -9.602 32.056
-34.924 -9.581 32.038
-35.164 -9.555 31.969
-35.404 -9.534 31.951
-35.644 -9.515 31.963
-35.884 -9.488 31.874
-36.114 -9.481 31.925
-36.354 -9.458 31.887
-36.594 -9.438 31.888
-36.844 -9.413 31.820
-37.094 -9.374 31.713
-37.364 -9.339 31.515
-37.594 -9.321 31.546
-37.804 -9.323 31.697
-38.034 -9.306 31.738
-38.264 -9.296 31.739
-38.504 -9.275 31.721
-38.784 -9.224 31.464
-39.054 -9.177 31.237
-39.324 -9.132 31.050
-39.644 -9.035 30.456
-39.944 -8.967 30.100
-40.224 -8.915 29.823
-40.484 -8.872 29.656
-40.704 -8.869 29.746
-40.914 -8.871 29.907
-41.134 -8.872 30.047
-41.364 -8.854 30.069
-41.604 -8.832 30.050
-41.884 -8.780 29.763
-42.154 -8.735 29.576
-42.424 -8.687 29.349
-42.784 -8.815 28.677
-42.744 -8.609 28.864
-43.774 -8.278 26.834
-43.504 -8.328 27.081
-44.044 -8.232 26.627
-44.324 -8.182 26.380
-44.674 -8.070 25.717
-44.894 -8.069 25.837
51.406 -9.340 -20.726
51.636 -9.315 -21.045
51.166 -9.340 -20.596
46.536 -9.793 -14.081
46.756 -9.744 -14.569
46.326 -9.855 -13.424
46.116 -9.929 -12.728
45.876 -9.936 -12.518
45.656 -9.973 -12.049
45.436 -10.024 -11.521
45.206 -10.054 -11.143
44.996 -10.106 -10.615
44.766 -10.124 -10.255
44.156 -10.386 -7.818
44.356 -10.307 -8.565
43.956 -10.475 -6.943
43.546 -10.636 -5.411
43.766 -10.587 -5.898
38.596 -11.904 5.985
38.826 -11.900 5.805
38.646 -11.743 6.620
38.886 -11.743 6.489
38.376 -11.927 6.284
38.416 -11.735 6.640
38.136 -11.902 6.216
38.186 -11.739 6.821
37.916 -11.915 6.516
37.956 -11.740 6.961
37.676 -11.916 6.656
37.726 -11.748 7.191
37.456 -11.920 6.826
37.496 -11.754 7.401
37.216 -11.918 6.937
37.256 -11.731 7.363
36.986 -11.916 7.037
37.036 -11.736 7.553
36.756 -11.917 7.168
36.806 -11.740 7.723
36.516 -11.897 7.169
36.566 -11.717 7.695
36.296 -11.909 7.459
36.336 -11.720 7.855
36.056 -11.888 7.441
36.096 -11.714 7.906
35.836 -11.911 7.740
35.866 -11.712 8.016
35.596 -11.891 7.731
35.646 -11.724 8.286
35.356 -11.885 7.782
35.406 -11.722 8.397
35.126 -11.868 7.824
35.176 -11.707 8.458
34.896 -11.887 8.073
34.946 -11.704 8.549
34.666 -11.875 8.174
34.726 -11.728 8.848
34.436 -11.892 8.383
34.486 -11.711 8.889
34.246 -11.687 8.841
34.016 -11.692 9.031
33.786 -11.693 9.171
33.556 -11.686 9.212
33.326 -11.677 9.353
33.086 -11.670 9.394
32.846 -11.645 9.326
32.616 -11.631 9.407
32.376 -11.630 9.517
32.146 -11.610 9.519
31.906 -11.589 9.511
31.666 -11.578 9.491
31.426 -11.557 9.483
31.186 -11.538 9.495
30.946 -11.512 9.416
30.706 -11.498 9.498
30.466 -11.485 9.459
30.236 -11.467 9.490
29.986 -11.442 9.422
29.736 -11.396 9.225
29.496 -11.374 9.197
29.246 -11.330 9.019
10.296 -9.531 5.911
10.526 -9.529 5.761
10.056 -9.511 5.913
9.826 -9.509 6.013
9.596 -9.511 6.173
9.366 -9.494 6.215
9.126 -9.493 6.325
8.886 -9.470 6.287
8.656 -9.468 6.387
8.416 -9.447 6.379
8.176 -9.429 6.410
7.936 -9.410 6.422
7.696 -9.400 6.423
7.456 -9.382 6.444
7.206 -9.357 6.386
6.956 -9.318 6.269
6.736 -9.338 6.518
6.496 -9.315 6.480
6.256 -9.293 6.461
6.016 -9.289 6.532
5.776 -9.267 6.514
5.536 -9.244 6.475
5.306 -9.247 6.636
5.066 -9.226 6.627
4.816 -9.202 6.579
4.576 -9.179 6.541
4.336 -9.163 6.592
4.096 -9.144 6.604
3.856 -9.134 6.604
3.626 -9.123 6.725
3.386 -9.100 6.687
3.146 -9.091 6.698
2.906 -9.072 6.709
2.666 -9.055 6.751
2.426 -9.046 6.762
2.196 -9.030 6.813
1.956 -9.009 6.805
1.716 -8.989 6.806
1.466 -8.978 6.797
1.226 -8.955 6.749
0.986 -8.935 6.760
0.746 -8.919 6.802
0.506 -8.912 6.842
0.266 -8.888 6.794
0.026 -8.869 6.806
-0.214 -8.850 6.817
-0.454 -8.844 6.878
-0.684 -8.827 6.909
-0.934 -8.803 6.861
-1.174 -8.781 6.833
-1.394 -8.803 7.122
-1.614 -8.792 7.233
-1.854 -8.783 7.244
-2.094 -8.764 7.265
-2.334 -8.760 7.336
-2.574 -8.738 7.318
-2.814 -8.722 7.369
-3.044 -8.718 7.439
-3.284 -8.694 7.391
-3.524 -8.678 7.443
-3.754 -8.675 7.533
-3.994 -8.660 7.595
-4.234 -8.640 7.596
-4.464 -8.636 7.677
-4.704 -8.617 7.688
-4.934 -8.613 7.759
-5.174 -8.597 7.810
-5.404 -8.595 7.911
-5.644 -8.575 7.912
-5.854 -8.593 8.141
-6.084 -8.594 8.292
-6.314 -8.581 8.373
-6.484 -8.649 8.990
-6.684 -8.682 9.398
-6.904 -8.687 9.589
-7.114 -8.705 9.828
-7.324 -8.729 10.127
-7.524 -8.742 10.417
-7.734 -8.764 10.706
-7.944 -8.788 11.005
-8.154 -8.800 11.285
-8.374 -8.802 11.435
-8.604 -8.799 11.526
-8.824 -8.804 11.716
-9.054 -8.800 11.796
-9.274 -8.803 11.957
-9.504 -8.800 12.047
-9.734 -8.785 12.119
-9.974 -8.780 12.179
-10.184 -8.789 12.419
-10.274 -9.198 13.791
-10.394 -9.056 14.665
-10.234 -8.986 14.029
-10.574 -9.108 15.193
-13.574 -9.236 18.102
-13.334 -9.243 18.061
-13.814 -9.215 18.083
-14.034 -9.213 18.194
-14.234 -9.238 18.503
-14.454 -9.239 18.643
-14.684 -9.226 18.734
-14.894 -9.248 19.014
-15.104 -9.254 19.224
-15.324 -9.256 19.374
-15.544 -9.269 19.534
-15.764 -9.257 19.645
-15.974 -9.274 19.854
-16.204 -9.259 19.926
-16.424 -9.275 20.125
-16.644 -9.264 20.246
-16.874 -9.258 20.287
-17.114 -9.239 20.308
-17.324 -9.242 20.469
-17.564 -9.237 20.529
-17.764 -9.244 20.749
-17.974 -9.264 21.008
-18.204 -9.251 21.090
-18.414 -9.266 21.289
-18.644 -9.252 21.361
-18.864 -9.251 21.471
-19.024 -9.321 22.107
-19.234 -9.327 22.318
-19.374 -9.406 23.064
-19.524 -9.479 23.740
-19.714 -9.505 24.069
-19.904 -9.548 24.487
-20.024 -9.634 25.323
-20.224 -9.657 25.622
-20.424 -9.680 25.911
-20.644 -9.678 26.011
-20.864 -9.679 26.152
-21.064 -9.701 26.431
-21.224 -9.757 27.018
-21.414 -9.782 27.337
-21.614 -9.804 27.606
-21.854 -9.781 27.578
-22.094 -9.763 27.600
-22.324 -9.744 27.611
-22.554 -9.740 27.692
-22.784 -9.719 27.683
-23.024 -9.712 27.714
-23.244 -9.701 27.835
-23.434 -9.726 28.144
-23.604 -9.777 28.672
-23.784 -9.818 29.070
-23.984 -9.828 29.320
-24.204 -9.826 29.420
-24.424 -9.827 29.561
-24.634 -9.828 29.701
-24.874 -9.807 29.683
-25.074 -9.831 29.992
-25.294 -9.825 30.042
-25.544 -9.802 30.004
-25.764 -9.800 30.104
-25.994 -9.779 30.096
-26.234 -9.757 30.078
-26.474 -9.736 30.059
-26.694 -9.735 30.170
-26.914 -9.732 30.260
-27.144 -9.719 30.352
-27.374 -9.713 30.402
-27.584 -9.715 30.563
-27.814 -9.699 30.614
-28.034 -9.698 30.724
-28.234 -9.714 30.934
-28.434 -9.724 31.184
-28.614 -9.765 31.572
-28.824 -9.771 31.782
-29.024 -9.792 32.051
-29.254 -9.775 32.083
-29.464 -9.775 32.213
-29.684 -9.773 32.313
-29.914 -9.768 32.384
-30.154 -9.747 32.366
-30.384 -9.731 32.417
-30.604 -9.726 32.478
-30.824 -9.723 32.568
-31.074 -9.687 32.501
-31.334 -9.651 32.293
-31.574 -9.632 32.304
-31.784 -9.636 32.485
-32.004 -9.634 32.585
-32.224 -9.631 32.676
-32.444 -9.617 32.757
-32.674 -9.613 32.838
-32.904 -9.593 32.829
-33.144 -9.570 32.791
-33.384 -9.547 32.762
-33.634 -9.523 32.704
-33.884 -9.494 32.596
-34.134 -9.467 32.508
-34.384 -9.430 32.421
-34.634 -9.402 32.322
-34.874 -9.375 32.234
-35.134 -9.335 32.097
-35.364 -9.327 32.128
-35.604 -9.309 32.149
-35.844 -9.283 32.081
-36.074 -9.266 32.113
-36.304 -9.260 32.173
-36.534 -9.244 32.225
-36.774 -9.222 32.196
-37.044 -9.170 31.919
-37.324 -9.117 31.633
-37.554 -9.104 31.714
-37.774 -9.101 31.805
-37.994 -9.098 31.895
-38.244 -9.074 31.847
-38.494 -9.046 31.749
-38.774 -8.981 31.423
-39.044 -8.933 31.196
-39.304 -8.892 31.059
-39.624 -8.812 30.553
-39.914 -8.744 30.208
-40.204 -8.676 29.852
-40.464 -8.642 29.674
-40.704 -8.623 29.686
-40.934 -8.608 29.747
-41.154 -8.602 29.798
-41.374 -8.603 29.938
-41.604 -8.587 29.989
-41.874 -8.540 29.782
-42.134 -8.507 29.614
-42.394 -8.464 29.447
-42.684 -8.398 29.121
-43.084 -8.495 28.191
-43.004 -8.320 28.636
-43.834 -7.984 26.406
-43.544 -8.051 26.751
-44.084 -7.957 26.317
-44.394 -7.871 25.863
50.416 -9.253 -20.810
50.166 -9.221 -20.968
50.166 -8.915 -21.415
50.406 -8.914 -21.555
49.926 -9.206 -20.896
49.926 -8.920 -21.225
49.676 -9.190 -20.845
49.686 -8.922 -21.064
49.436 -9.189 -20.734
49.436 -8.905 -21.033
49.196 -9.187 -20.634
49.196 -8.890 -20.962
48.966 -9.227 -20.125
48.956 -8.887 -20.881
48.726 -9.205 -20.144
48.716 -8.897 -20.621
48.476 -9.198 -20.103
48.486 -8.917 -20.362
48.236 -9.183 -20.042
48.246 -8.918 -20.222
47.996 -9.185 -19.891
48.006 -8.929 -19.962
47.756 -9.185 -19.771
47.766 -8.928 -19.841
47.536 -9.238 -19.214
47.536 -8.960 -19.432
47.316 -9.299 -18.576
47.306 -8.966 -19.232
45.676 -9.731 -12.060
45.896 -9.688 -12.478
45.446 -9.770 -11.572
45.226 -9.818 -11.084
45.006 -9.849 -10.695
44.786 -9.883 -10.256
44.556 -10.203 -9.509
44.566 -9.941 -9.649
40.676 -11.607 4.253
40.446 -11.617 4.513
40.506 -11.475 5.256
40.716 -11.441 4.828
39.546 -11.680 5.561
39.786 -11.700 5.560
39.606 -11.538 6.315
39.836 -11.537 6.174
39.096 -11.715 6.130
38.916 -11.545 6.776
39.146 -11.551 6.735
38.686 -11.546 6.926
38.456 -11.554 7.156
38.226 -11.554 7.276
37.996 -11.553 7.397
37.766 -11.541 7.498
37.526 -11.543 7.648
37.306 -11.562 7.888
37.066 -11.543 7.899
36.836 -11.541 8.010
36.606 -11.542 8.150
36.376 -11.547 8.330
36.146 -11.545 8.441
35.916 -11.532 8.532
35.676 -11.528 8.603
35.446 -11.530 8.753
35.216 -11.531 8.893
34.986 -11.533 9.044
34.766 -11.537 9.224
34.526 -11.514 9.195
34.286 -11.503 9.307
34.056 -11.503 9.427
33.826 -11.500 9.528
33.586 -11.483 9.559
33.356 -11.479 9.640
33.126 -11.464 9.701
32.886 -11.458 9.752
32.656 -11.456 9.852
32.416 -11.437 9.864
32.176 -11.412 9.805
31.936 -11.393 9.817
31.696 -11.374 9.828
31.466 -11.364 9.839
31.226 -11.348 9.891
30.986 -11.326 9.862
30.746 -11.300 9.784
30.506 -11.279 9.776
30.256 -11.251 9.678
30.016 -11.229 9.649
29.776 -11.206 9.611
29.536 -11.181 9.553
29.296 -11.157 9.494
29.006 -11.305 8.951
29.056 -11.137 9.496
28.756 -11.274 8.813
28.806 -11.107 9.378
28.486 -11.206 8.457
28.556 -11.062 9.181
12.116 -9.518 4.728
12.356 -9.541 4.767
12.186 -9.354 5.323
12.436 -9.398 5.500
11.926 -9.572 5.286
11.956 -9.356 5.473
11.686 -9.566 5.337
11.736 -9.376 5.733
11.446 -9.543 5.308
11.506 -9.360 5.784
11.216 -9.530 5.399
11.266 -9.342 5.815
10.966 -9.507 5.351
11.036 -9.340 5.916
10.746 -9.523 5.561
10.796 -9.337 6.006
10.566 -9.335 6.107
10.346 -9.342 6.317
10.116 -9.344 6.467
9.886 -9.328 6.519
9.646 -9.305 6.490
9.406 -9.298 6.521
9.166 -9.281 6.563
8.926 -9.261 6.564
8.686 -9.241 6.566
8.446 -9.233 6.586
8.216 -9.218 6.658
7.986 -9.216 6.758
7.746 -9.198 6.790
7.506 -9.187 6.771
7.266 -9.166 6.762
7.006 -9.128 6.655
6.766 -9.105 6.627
6.536 -9.106 6.767
6.306 -9.100 6.808
6.056 -9.079 6.799
5.816 -9.053 6.731
5.576 -9.034 6.743
5.336 -9.017 6.774
5.096 -9.009 6.805
4.856 -8.988 6.796
4.616 -8.971 6.828
4.376 -8.952 6.849
4.146 -8.946 6.900
3.896 -8.922 6.842
3.656 -8.900 6.823
3.416 -8.882 6.845
3.176 -8.873 6.866
2.946 -8.861 6.957
2.706 -8.837 6.919
2.466 -8.831 6.969
2.216 -8.794 6.882
1.976 -8.787 6.912
1.736 -8.770 6.954
1.506 -8.763 6.995
1.256 -8.729 6.937
1.026 -8.726 7.028
0.776 -8.702 6.979
0.536 -8.678 6.931
0.306 -8.679 7.071
0.076 -8.665 7.143
-0.154 -8.662 7.233
-0.404 -8.641 7.225
-0.644 -8.619 7.207
-0.884 -8.610 7.217
-1.114 -8.595 7.279
-1.334 -8.600 7.469
-1.584 -8.572 7.371
-1.824 -8.568 7.451
-2.054 -8.556 7.543
-2.284 -8.556 7.673
-2.524 -8.534 7.655
-2.764 -8.527 7.695
-2.994 -8.510 7.727
-3.234 -8.505 7.797
-3.474 -8.484 7.779
-3.704 -8.469 7.840
-3.954 -8.449 7.842
-4.184 -8.446 7.932
-4.414 -8.438 7.963
-4.654 -8.418 7.965
-4.894 -8.401 7.996
-5.134 -8.384 8.038
-5.374 -8.376 8.068
-5.594 -8.376 8.199
-5.794 -8.405 8.558
-6.024 -8.404 8.678
-6.254 -8.391 8.769
-6.464 -8.415 9.068
-6.644 -8.465 9.576
-6.864 -8.473 9.806
-7.074 -8.492 10.045
-7.284 -8.515 10.344
-7.494 -8.525 10.594
-7.694 -8.550 10.913
-7.894 -8.583 11.332
-8.114 -8.582 11.452
-8.334 -8.600 11.672
-8.564 -8.586 11.753
-8.784 -8.602 11.953
-9.004 -8.590 12.064
-9.244 -8.586 12.134
-9.474 -8.581 12.205
-9.694 -8.585 12.375
-9.914 -8.574 12.486
-10.104 -8.621 12.964
-10.384 -8.814 14.644
-10.254 -8.714 13.759
-10.534 -8.895 15.420
-10.904 -9.238 16.467
-10.714 -9.196 16.059
-10.844 -9.050 16.883
-10.634 -9.030 16.623
-11.074 -9.291 17.014
-11.034 -9.082 17.291
-13.984 -9.015 18.480
-13.744 -9.042 18.568
-14.214 -9.001 18.562
-14.434 -9.003 18.712
-14.644 -9.025 18.991
-14.864 -9.027 19.141
-15.084 -9.026 19.252
-15.314 -9.011 19.323
-15.534 -9.011 19.444
