40.526 -6.784 7.722
40.776 -6.542 7.701
43.126 -5.801 7.599
42.766 -6.044 7.620
43.586 -5.559 7.578
43.736 -5.327 7.566
44.016 -5.086 7.555
44.116 -4.854 7.543
44.266 -4.613 7.532
44.346 -4.381 7.520
44.376 -4.140 7.519
44.356 -3.908 7.507
44.336 -3.668 7.506
44.316 -3.437 7.504
44.306 -3.195 7.493
44.276 -2.964 7.491
44.146 -2.733 7.489
44.026 -2.493 7.488
43.866 -2.262 7.486
43.926 -2.020 7.475
43.736 -1.789 7.473
43.636 -1.558 7.471
43.376 -1.318 7.480
43.276 -1.088 7.478
42.896 -0.847 7.487
42.566 -0.617 7.485
41.976 -0.387 7.503
40.556 0.081 7.540
41.076 -0.149 7.532
40.496 0.322 7.539
40.426 0.553 7.537
40.396 0.795 7.526
40.336 1.035 7.525
40.266 1.266 7.523
40.226 1.507 7.522
40.256 1.739 7.510
40.096 1.980 7.509
40.056 2.210 7.507
40.056 2.452 7.496
39.896 2.693 7.495
39.796 2.924 7.493
39.606 3.164 7.502
39.476 3.395 7.490
39.276 3.635 7.499
39.136 3.876 7.498
39.006 4.107 7.496
38.836 4.348 7.495
38.566 4.589 7.494
38.376 4.819 7.502
38.146 5.060 7.501
37.756 5.300 7.510
37.596 5.541 7.508
37.226 5.781 7.517
36.966 6.011 7.515
36.556 6.252 7.524
36.026 6.492 7.533
35.716 6.732 7.542
30.406 7.723 7.941
29.736 7.963 7.960
30.016 7.962 7.709
30.676 7.712 7.699
37.166 -11.809 7.969
38.136 -11.566 7.687
37.416 -11.820 7.727
38.446 -11.325 7.676
38.636 -11.083 7.665
39.016 -10.841 7.644
39.156 -10.599 7.633
39.366 -10.357 7.621
39.396 -10.116 7.610
39.566 -9.884 7.598
39.706 -9.642 7.587
39.756 -9.401 7.576
39.796 -9.170 7.574
39.886 -8.928 7.563
39.826 -8.688 7.562
39.886 -8.456 7.550
39.906 -8.214 7.539
39.966 -7.973 7.538
39.986 -7.742 7.526
39.926 -7.501 7.525
39.856 -7.270 7.523
40.026 -7.028 7.512
40.676 -6.785 7.481
41.026 -6.543 7.460
43.416 -5.813 7.357
42.976 -6.045 7.379
43.826 -5.570 7.336
44.006 -5.329 7.325
44.236 -5.097 7.313
44.356 -4.855 7.302
44.416 -4.624 7.290
44.486 -4.382 7.279
44.526 -4.151 7.277
44.536 -3.910 7.266
44.596 -3.679 7.264
44.536 -3.437 7.253
44.486 -3.206 7.251
44.416 -2.965 7.250
44.386 -2.734 7.238
44.356 -2.503 7.236
44.196 -2.262 7.235
44.206 -2.031 7.233
43.986 -1.790 7.232
43.896 -1.560 7.230
43.556 -1.329 7.239
43.436 -1.089 7.237
43.066 -0.859 7.246
42.776 -0.618 7.244
42.026 -0.388 7.262
40.636 0.080 7.299
40.936 -0.161 7.300
40.666 0.311 7.297
40.576 0.552 7.296
40.526 0.793 7.285
40.506 1.024 7.283
40.426 1.265 7.282
40.456 1.497 7.270
40.266 1.738 7.269
40.136 1.968 7.267
40.096 2.209 7.266
40.046 2.440 7.264
40.036 2.682 7.253
39.916 2.923 7.252
39.736 3.153 7.250
39.516 3.393 7.259
39.456 3.635 7.248
39.206 3.865 7.256
39.096 4.106 7.255
38.846 4.347 7.254
38.706 4.578 7.252
38.446 4.818 7.261
38.276 5.059 7.260
37.986 5.289 7.258
37.696 5.529 7.267
37.456 5.770 7.266
37.146 6.010 7.275
36.886 6.251 7.273
36.316 6.490 7.292
35.916 6.730 7.301
35.006 6.971 7.561
35.416 6.971 7.310
38.346 -11.567 7.446
37.796 -11.810 7.477
38.696 -11.325 7.425
38.856 -11.083 7.414
39.196 -10.841 7.393
39.356 -10.599 7.382
39.506 -10.358 7.371
39.596 -10.127 7.369
39.716 -9.885 7.358
39.806 -9.644 7.347
39.926 -9.402 7.336
39.986 -9.170 7.324
40.006 -8.929 7.323
40.056 -8.698 7.311
40.026 -8.457 7.310
40.016 -8.215 7.298
40.036 -7.985 7.297
39.996 -7.743 7.286
40.006 -7.512 7.284
39.986 -7.271 7.283
40.176 -7.029 7.261
40.876 -6.786 7.230
41.156 -6.544 7.219
42.196 -6.298 7.409
43.266 -6.055 7.127
42.716 -6.298 7.158
43.646 -5.814 7.116
44.036 -5.571 7.095
44.206 -5.330 7.084
44.406 -5.098 7.072
44.526 -4.856 7.061
44.666 -4.625 7.049
44.736 -4.383 7.038
44.756 -4.152 7.026
44.786 -3.911 7.025
44.826 -3.679 7.014
44.786 -3.448 7.012
44.726 -3.207 7.011
44.696 -2.976 6.999
44.626 -2.735 6.998
44.556 -2.504 6.996
44.376 -2.273 6.994
44.386 -2.032 6.993
44.196 -1.801 6.991
44.026 -1.561 6.990
43.786 -1.330 6.988
43.536 -1.100 6.996
43.196 -0.860 7.005
42.936 -0.629 7.003
42.256 -0.390 7.022
40.806 0.069 7.058
41.316 -0.161 7.050
40.776 0.310 7.057
40.706 0.551 7.056
40.666 0.782 7.044
40.636 1.023 7.043
40.646 1.255 7.031
40.476 1.495 7.040
40.396 1.727 7.028
40.356 1.967 7.027
40.356 2.198 7.025
40.216 2.439 7.024
40.146 2.681 7.012
40.016 2.912 7.011
39.886 3.152 7.009
39.646 3.382 7.018
39.506 3.623 7.016
39.436 3.865 7.005
39.286 4.095 7.013
38.976 4.336 7.012
38.786 4.577 7.011
38.606 4.807 7.009
38.466 5.048 7.018
38.106 5.288 7.017
37.936 5.529 7.016
37.586 5.759 7.024
37.466 6.000 7.023
37.156 6.240 7.032
36.576 6.480 7.041
36.386 6.721 7.040
36.776 -12.074 7.516
35.966 -12.328 7.547
37.066 -12.075 7.266
36.426 -12.318 7.297
38.396 -11.568 7.205
38.016 -11.821 7.225
38.836 -11.326 7.184
39.056 -11.084 7.173
39.346 -10.842 7.152
39.416 -10.601 7.151
39.666 -10.369 7.129
39.766 -10.127 7.118
39.926 -9.885 7.107
39.936 -9.645 7.106
40.056 -9.413 7.094
40.086 -9.171 7.083
40.146 -8.931 7.082
40.106 -8.699 7.070
40.136 -8.458 7.069
40.116 -8.226 7.057
40.076 -7.986 7.056
40.046 -7.755 7.054
40.066 -7.513 7.043
40.076 -7.282 7.041
40.266 -7.041 7.030
40.986 -6.797 6.989
41.386 -6.555 6.978
43.566 -6.056 6.887
42.966 -6.299 6.908
43.876 -5.814 6.866
44.146 -5.572 6.854
44.376 -5.341 6.843
44.616 -5.098 6.822
44.756 -4.867 6.810
44.786 -4.626 6.809
44.846 -4.394 6.797
44.886 -4.153 6.796
44.916 -3.922 6.784
44.926 -3.680 6.773
44.876 -3.449 6.771
44.916 -3.218 6.769
44.826 -2.977 6.758
44.716 -2.746 6.756
44.676 -2.505 6.755
44.646 -2.274 6.753
44.486 -2.043 6.751
44.356 -1.803 6.750
44.166 -1.572 6.748
43.906 -1.332 6.757
43.626 -1.101 6.755
43.386 -0.870 6.753
42.986 -0.630 6.762
42.456 -0.401 6.780
40.816 0.067 6.827
41.246 -0.163 6.819
40.706 0.308 6.826
40.686 0.540 6.814
40.726 0.780 6.813
40.676 1.012 6.801
40.706 1.253 6.800
40.596 1.484 6.798
40.616 1.725 6.787
40.516 1.956 6.785
40.386 2.197 6.784
40.276 2.438 6.783
40.176 2.669 6.781
40.026 2.910 6.780
39.976 3.141 6.768
39.796 3.381 6.777
39.586 3.622 6.776
39.496 3.853 6.774
39.326 4.094 6.773
39.146 4.325 6.771
38.966 4.566 6.770
38.676 4.806 6.778
38.386 5.046 6.777
38.196 5.277 6.775
38.086 5.518 6.774
37.796 5.758 6.783
37.626 5.989 6.781
37.296 6.229 6.790
36.946 6.470 6.789
36.396 6.709 6.808
37.326 -12.075 7.015
36.726 -12.318 7.046
38.496 -11.579 6.964
38.216 -11.822 6.985
38.976 -11.327 6.943
39.146 -11.085 6.932
39.486 -10.843 6.911
39.546 -10.612 6.909
39.746 -10.370 6.888
39.866 -10.128 6.877
40.066 -9.887 6.866
40.096 -9.656 6.864
40.146 -9.414 6.853
40.226 -9.173 6.842
40.226 -8.942 6.840
40.286 -8.700 6.829
40.266 -8.469 6.827
40.176 -8.228 6.826
40.126 -7.997 6.814
40.186 -7.756 6.813
40.096 -7.524 6.801
40.096 -7.283 6.800
40.436 -7.041 6.779
41.036 -6.799 6.758
41.676 -6.555 6.727
43.756 -6.058 6.646
43.096 -6.301 6.677
44.086 -5.815 6.625
44.316 -5.583 6.613
44.626 -5.341 6.592
44.786 -5.099 6.581
44.876 -4.869 6.579
44.976 -4.627 6.568
45.036 -4.395 6.556
44.996 -4.164 6.554
45.096 -3.923 6.543
45.056 -3.692 6.541
44.976 -3.450 6.530
44.986 -3.220 6.528
44.946 -2.989 6.526
44.986 -2.747 6.515
44.996 -2.516 6.513
44.906 -2.275 6.502
44.816 -2.044 6.500
44.606 -1.814 6.508
44.236 -1.573 6.507
44.066 -1.343 6.515
43.816 -1.102 6.514
43.586 -0.871 6.512
43.076 -0.642 6.530
42.606 -0.402 6.539
40.856 0.066 6.586
41.266 -0.174 6.577
40.896 0.298 6.574
40.836 0.539 6.573
40.796 0.769 6.571
40.756 1.011 6.560
40.726 1.242 6.558
40.596 1.483 6.557
40.726 1.714 6.545
40.666 1.955 6.544
40.526 2.186 6.542
40.436 2.427 6.541
40.406 2.668 6.530
40.196 2.899 6.538
40.046 3.139 6.537
39.936 3.370 6.535
39.776 3.611 6.534
39.646 3.852 6.533
39.516 4.083 6.531
39.276 4.324 6.530
39.056 4.564 6.529
38.866 4.795 6.527
38.746 5.036 6.526
38.516 5.276 6.535
38.216 5.507 6.533
37.976 5.747 6.542
37.826 5.988 6.541
37.546 6.229 6.539
37.136 6.469 6.548
36.596 6.709 6.557
35.716 6.949 6.817
35.956 6.948 6.576
35.196 7.188 6.836
35.646 7.188 6.585
30.616 8.171 6.963
30.916 7.931 6.964
31.056 8.161 6.712
31.256 7.920 6.713
30.306 8.411 6.972
30.626 8.411 6.721
37.446 -12.076 6.774
36.966 -12.319 6.795
38.706 -11.581 6.723
38.356 -11.823 6.744
39.076 -11.338 6.702
39.266 -11.097 6.691
39.576 -10.854 6.670
39.676 -10.613 6.658
39.796 -10.372 6.657
39.926 -10.130 6.646
40.136 -9.898 6.624
40.056 -9.657 6.623
40.156 -9.415 6.612
40.266 -9.184 6.610
40.346 -8.943 6.599
40.276 -8.712 6.597
40.286 -8.470 6.586
40.316 -8.229 6.585
40.236 -7.998 6.573
40.226 -7.757 6.572
40.206 -7.526 6.570
40.336 -7.285 6.559
40.666 -7.042 6.538
41.206 -6.800 6.517
42.026 -6.556 6.476
43.936 -6.059 6.405
43.346 -6.301 6.426
44.316 -5.826 6.383
44.626 -5.584 6.362
44.776 -5.342 6.351
44.946 -5.111 6.339
45.066 -4.869 6.328
45.136 -4.638 6.326
45.236 -4.396 6.315
45.186 -4.166 6.313
45.146 -3.934 6.301
45.286 -3.692 6.290
45.206 -3.461 6.288
45.236 -3.221 6.287
45.196 -2.989 6.275
45.096 -2.748 6.274
45.106 -2.517 6.272
44.966 -2.286 6.270
44.886 -2.046 6.269
44.736 -1.815 6.267
44.476 -1.584 6.266
44.236 -1.343 6.264
43.886 -1.113 6.273
43.606 -0.873 6.281
43.266 -0.642 6.280
42.706 -0.413 6.298
40.966 0.055 6.344
41.176 -0.176 6.346
40.926 0.296 6.343
40.956 0.527 6.331
40.906 0.768 6.330
40.886 1.000 6.318
40.866 1.241 6.317
40.816 1.472 6.315
40.676 1.712 6.314
40.666 1.944 6.303
40.586 2.185 6.301
40.486 2.426 6.300
40.426 2.657 6.298
40.176 2.897 6.297
40.126 3.128 6.295
40.056 3.369 6.294
39.906 3.600 6.292
39.636 3.841 6.291
39.536 4.082 6.290
39.356 4.313 6.288
39.156 4.553 6.287
38.966 4.794 6.286
38.966 5.025 6.284
38.746 5.266 6.283
38.436 5.506 6.292
38.166 5.747 6.291
37.966 5.978 6.289
37.616 6.218 6.298
37.356 6.458 6.307
36.766 6.698 6.316
36.226 6.938 6.324
35.876 7.178 6.333
31.036 8.401 6.470
31.456 8.161 6.461
37.816 -12.076 6.523
37.416 -12.319 6.544
38.926 -11.581 6.472
38.466 -11.824 6.503
39.236 -11.339 6.461
39.446 -11.098 6.450
39.636 -10.855 6.429
39.786 -10.614 6.418
39.936 -10.382 6.406
39.996 -10.141 6.405
40.076 -9.900 6.394
40.166 -9.668 6.382
40.246 -9.427 6.381
40.286 -9.185 6.370
40.366 -8.954 6.358
40.386 -8.713 6.357
40.386 -8.471 6.345
40.326 -8.241 6.344
40.356 -7.999 6.332
40.296 -7.768 6.331
40.286 -7.527 6.329
40.316 -7.296 6.318
40.786 -7.053 6.297
41.346 -6.811 6.276
44.096 -6.070 6.163
43.456 -6.312 6.184
44.446 -5.827 6.142
44.766 -5.585 6.121
44.926 -5.353 6.109
45.146 -5.112 6.098
45.266 -4.880 6.086
45.366 -4.638 6.075
45.406 -4.408 6.073
45.446 -4.166 6.062
45.466 -3.935 6.061
45.486 -3.693 6.049
45.486 -3.463 6.048
45.416 -3.232 6.046
45.356 -2.990 6.035
45.326 -2.759 6.033
45.196 -2.518 6.032
45.116 -2.288 6.030
45.056 -2.057 6.028
44.886 -1.816 6.027
44.706 -1.585 6.025
44.396 -1.354 6.023
44.056 -1.114 6.032
43.826 -0.884 6.040
43.326 -0.654 6.048
41.086 0.054 6.104
41.196 -0.187 6.105
40.946 0.285 6.102
40.996 0.526 6.091
41.006 0.757 6.089
41.026 0.999 6.078
41.016 1.230 6.076
40.836 1.471 6.075
40.856 1.701 6.073
40.746 1.943 6.062
40.616 2.184 6.061
40.606 2.415 6.059
40.496 2.655 6.058
40.416 2.886 6.056
40.286 3.127 6.055
40.116 3.358 6.053
39.936 3.599 6.052
39.836 3.840 6.050
39.666 4.071 6.049
39.456 4.311 6.047
39.256 4.552 6.046
39.136 4.783 6.044
38.956 5.024 6.043
38.706 5.264 6.052
38.476 5.495 6.050
38.426 5.736 6.049
38.226 5.976 6.048
37.796 6.217 6.057
37.556 6.447 6.055
36.986 6.687 6.074
36.666 6.927 6.073
36.026 7.167 6.092
35.266 7.417 6.352
35.276 7.416 6.111
31.226 8.391 6.218
31.336 8.150 6.219
37.996 -12.078 6.282
37.506 -12.320 6.303
38.616 -11.824 6.252
39.026 -11.582 6.231
39.326 -11.340 6.220
39.566 -11.099 6.209
39.766 -10.856 6.188
39.946 -10.625 6.176
40.106 -10.383 6.165
40.206 -10.142 6.164
40.126 -9.911 6.152
40.266 -9.669 6.141
40.366 -9.428 6.140
40.396 -9.197 6.128
40.446 -8.955 6.117
40.486 -8.714 6.116
40.476 -8.482 6.104
40.436 -8.242 6.103
40.436 -8.010 6.091
40.326 -7.769 6.090
40.366 -7.538 6.088
40.276 -7.297 6.087
40.726 -7.055 6.066
41.376 -6.812 6.035
44.286 -6.070 5.913
43.776 -6.313 5.944
44.616 -5.828 5.901
44.926 -5.596 5.880
45.096 -5.354 5.869
45.336 -5.113 5.857
45.446 -4.881 5.846
45.486 -4.640 5.845
45.526 -4.409 5.833
45.586 -4.177 5.821
45.656 -3.936 5.820
45.526 -3.705 5.818
45.586 -3.464 5.807
45.556 -3.233 5.805
45.556 -3.001 5.793
45.496 -2.760 5.792
45.406 -2.529 5.790
45.316 -2.289 5.789
45.236 -2.058 5.787
45.086 -1.827 5.785
44.766 -1.586 5.784
44.386 -1.356 5.792
44.296 -1.125 5.790
43.816 -0.885 5.799
43.466 -0.655 5.807
41.136 0.043 5.862
41.296 -0.188 5.864
41.066 0.284 5.861
41.046 0.514 5.859
40.996 0.756 5.848
41.076 0.987 5.846
40.966 1.228 5.845
40.896 1.459 5.833
40.926 1.700 5.832
40.826 1.931 5.830
40.806 2.173 5.819
40.696 2.414 5.818
40.656 2.644 5.816
40.546 2.885 5.815
40.416 3.116 5.813
40.276 3.357 5.812
40.116 3.588 5.810
39.896 3.829 5.809
39.686 4.069 5.808
39.566 4.300 5.806
39.386 4.541 5.805
39.236 4.782 5.804
39.046 5.013 5.802
38.856 5.253 5.811
38.666 5.494 5.809
38.466 5.725 5.808
38.076 5.965 5.816
37.886 6.205 5.815
37.586 6.446 5.814
37.236 6.686 5.823
36.766 6.926 5.832
36.196 7.166 5.851
35.636 7.406 5.860
30.836 8.631 6.227
31.176 8.620 5.975
31.736 8.380 5.966
38.226 -12.079 6.042
37.876 -12.320 6.053
38.776 -11.835 6.010
39.156 -11.583 5.990
39.466 -11.341 5.979
39.626 -11.110 5.967
39.776 -10.868 5.956
40.026 -10.626 5.935
40.186 -10.384 5.924
40.276 -10.143 5.923
40.436 -9.912 5.911
40.436 -9.670 5.900
40.496 -9.429 5.899
40.526 -9.198 5.887
40.506 -8.957 5.886
40.606 -8.725 5.874
40.586 -8.484 5.863
40.566 -8.253 5.861
40.486 -8.012 5.860
40.446 -7.780 5.848
40.406 -7.539 5.847
40.356 -7.309 5.845
40.826 -7.066 5.824
41.496 -6.813 5.794
44.396 -6.072 5.682
43.926 -6.314 5.703
44.786 -5.839 5.660
45.076 -5.597 5.639
45.336 -5.355 5.628
45.516 -5.124 5.616
45.606 -4.882 5.605
45.656 -4.651 5.603
45.726 -4.410 5.592
45.766 -4.178 5.580
45.756 -3.947 5.578
45.746 -3.706 5.577
45.746 -3.475 5.565
45.706 -3.234 5.564
45.696 -3.002 5.552
45.586 -2.771 5.550
45.526 -2.531 5.549
45.426 -2.300 5.547
45.316 -2.059 5.546
45.196 -1.828 5.544
44.996 -1.597 5.542
44.596 -1.357 5.551
44.366 -1.126 5.549
43.946 -0.896 5.557
43.486 -0.656 5.566
41.186 0.041 5.631
41.266 -0.200 5.632
41.156 0.273 5.619
41.036 0.513 5.618
41.066 0.744 5.616
41.096 0.986 5.605
41.066 1.217 5.603
41.056 1.458 5.592
41.086 1.689 5.590
41.006 1.931 5.579
40.866 2.172 5.578
40.776 2.402 5.576
40.676 2.643 5.575
40.616 2.874 5.573
40.546 3.115 5.572
40.326 3.346 5.570
40.096 3.587 5.569
40.036 3.828 5.568
39.756 4.058 5.566
39.676 4.299 5.565
39.536 4.530 5.563
39.396 4.771 5.562
39.206 5.012 5.561
39.016 5.242 5.569
38.836 5.483 5.568
38.536 5.723 5.567
38.316 5.964 5.566
38.066 6.194 5.574
37.716 6.435 5.573
37.446 6.675 5.581
36.896 6.915 5.590
36.266 7.155 5.609
35.836 7.395 5.618
35.106 7.646 5.869
35.206 7.635 5.627
38.356 -12.080 5.801
38.056 -12.321 5.812
38.936 -11.837 5.770
39.256 -11.594 5.749
39.556 -11.353 5.738
39.716 -11.111 5.726
39.916 -10.869 5.715
40.096 -10.628 5.704
40.216 -10.386 5.693
40.296 -10.154 5.681
40.396 -9.913 5.670
40.536 -9.671 5.659
40.536 -9.440 5.657
40.656 -9.199 5.646
40.656 -8.967 5.634
40.636 -8.726 5.633
40.646 -8.485 5.632
40.596 -8.254 5.620
40.576 -8.013 5.619
40.556 -7.781 5.607
40.406 -7.551 5.615
40.336 -7.310 5.604
40.676 -7.068 5.593
41.416 -6.825 5.562
44.606 -6.082 5.430
44.136 -6.315 5.462
44.966 -5.841 5.419
45.236 -5.598 5.398
45.426 -5.367 5.386
45.646 -5.125 5.375
45.776 -4.893 5.363
45.866 -4.652 5.352
45.856 -4.421 5.350
45.946 -4.179 5.339
45.966 -3.948 5.337
45.956 -3.707 5.326
45.936 -3.476 5.324
45.866 -3.245 5.322
45.916 -3.003 5.311
45.826 -2.773 5.309
45.646 -2.542 5.308
45.616 -2.301 5.306
45.406 -2.070 5.305
45.196 -1.839 5.303
44.956 -1.599 5.311
44.766 -1.368 5.310
44.476 -1.137 5.308
44.026 -0.897 5.317
43.506 -0.668 5.335
41.976 -0.429 5.614
41.466 -0.201 5.391
41.786 -0.441 5.383
41.236 0.030 5.390
41.186 0.271 5.388
41.146 0.502 5.377
41.186 0.743 5.375
41.186 0.975 5.364
41.206 1.216 5.362
41.186 1.447 5.351
41.126 1.688 5.349
41.056 1.929 5.348
40.946 2.160 5.346
40.846 2.401 5.345
40.806 2.632 5.334
40.676 2.873 5.332
40.556 3.104 5.331
40.336 3.345 5.329
40.186 3.586 5.328
40.086 3.816 5.326
39.916 4.057 5.325
39.756 4.288 5.323
39.646 4.529 5.322
39.456 4.770 5.321
39.276 5.000 5.329
39.086 5.241 5.328
38.846 5.482 5.327
38.676 5.712 5.325
38.446 5.953 5.324
38.116 6.193 5.333
37.906 6.434 5.332
37.536 6.674 5.341
37.026 6.914 5.350
36.446 7.154 5.358
36.046 7.394 5.367
35.396 7.634 5.386
38.546 -12.090 5.549
38.146 -12.332 5.570
39.046 -11.838 5.529
39.276 -11.596 5.518
39.756 -11.354 5.497
39.846 -11.112 5.486
40.056 -10.870 5.475
40.166 -10.639 5.463
40.286 -10.397 5.452
40.376 -10.156 5.441
40.446 -9.924 5.429
40.486 -9.683 5.428
40.586 -9.441 5.416
40.546 -9.211 5.415
40.716 -8.969 5.404
40.716 -8.727 5.392
40.746 -8.497 5.391
40.696 -8.255 5.379
40.696 -8.024 5.378
40.536 -7.783 5.376
40.526 -7.552 5.375
40.426 -7.311 5.363
40.606 -7.079 5.352
41.386 -6.826 5.321
44.726 -6.084 5.199
44.296 -6.326 5.220
45.106 -5.842 5.178
45.356 -5.610 5.166
45.546 -5.368 5.155
45.806 -5.126 5.134
45.846 -4.895 5.132
45.996 -4.654 5.121
46.036 -4.422 5.109
46.156 -4.190 5.098
46.156 -3.949 5.096
46.146 -3.718 5.085
46.076 -3.477 5.083
46.076 -3.246 5.082
46.006 -3.014 5.070
45.956 -2.774 5.069
45.826 -2.543 5.067
45.806 -2.312 5.065
45.616 -2.071 5.064
45.406 -1.840 5.062
45.176 -1.610 5.070
44.836 -1.369 5.069
44.676 -1.138 5.067
44.196 -0.908 5.075
43.686 -0.669 5.094
41.516 -0.212 5.150
41.746 -0.443 5.152
41.396 0.029 5.149
41.256 0.260 5.147
41.276 0.501 5.136
41.216 0.732 5.134
41.296 0.974 5.123
41.276 1.205 5.121
41.196 1.445 5.120
41.186 1.687 5.109
41.106 1.918 5.107
41.036 2.159 5.106
40.936 2.390 5.104
40.836 2.630 5.103
40.776 2.862 5.091
40.616 3.103 5.090
40.476 3.334 5.088
40.366 3.575 5.087
40.186 3.815 5.086
40.026 4.046 5.084
39.856 4.287 5.083
39.756 4.518 5.081
39.546 4.758 5.090
39.306 4.999 5.088
39.166 5.230 5.087
39.066 5.470 5.085
38.796 5.711 5.084
38.626 5.952 5.083
38.346 6.182 5.091
38.066 6.423 5.090
37.716 6.663 5.099
37.196 6.903 5.108
36.506 7.142 5.127
36.256 7.383 5.126
35.726 7.623 5.134
34.656 7.873 5.405
35.066 7.862 5.153
37.486 -12.586 5.600
38.236 -12.334 5.329
37.676 -12.586 5.350
38.696 -12.091 5.308
39.126 -11.839 5.288
39.386 -11.607 5.276
39.756 -11.355 5.256
39.976 -11.113 5.245
40.206 -10.882 5.233
40.236 -10.640 5.222
40.406 -10.398 5.211
40.516 -10.157 5.200
40.596 -9.925 5.188
40.606 -9.684 5.187
40.596 -9.453 5.175
40.626 -9.212 5.174
40.706 -8.970 5.163
40.746 -8.739 5.161
40.666 -8.498 5.150
40.706 -8.267 5.148
40.666 -8.025 5.137
40.606 -7.794 5.135
40.546 -7.553 5.134
40.516 -7.323 5.132
40.696 -7.080 5.111
41.256 -6.838 5.090
44.886 -6.085 4.958
44.366 -6.328 4.979
45.206 -5.853 4.937
45.446 -5.611 4.925
45.646 -5.370 4.914
45.866 -5.138 4.903
46.026 -4.896 4.891
46.106 -4.665 4.880
46.166 -4.423 4.869
46.296 -4.191 4.857
46.336 -3.961 4.855
46.296 -3.719 4.844
46.226 -3.488 4.842
46.176 -3.247 4.841
46.146 -3.016 4.839
46.036 -2.786 4.837
45.936 -2.544 4.826
45.836 -2.313 4.824
45.786 -2.082 4.822
45.586 -1.841 4.821
45.376 -1.610 4.819
44.896 -1.381 4.837
44.666 -1.140 4.836
44.186 -0.910 4.844
43.486 -0.681 4.862
41.576 -0.213 4.909
41.716 -0.454 4.910
41.396 0.018 4.907
41.186 0.258 4.906
41.316 0.489 4.904
41.276 0.731 4.893
41.256 0.962 4.891
41.286 1.203 4.880
41.256 1.444 4.879
41.216 1.675 4.877
41.076 1.916 4.876
41.056 2.148 4.864
40.926 2.388 4.863
40.896 2.619 4.861
40.806 2.860 4.860
40.746 3.092 4.848
40.526 3.332 4.857
40.446 3.573 4.846
40.256 3.803 4.854
40.056 4.044 4.853
39.926 4.275 4.851
39.766 4.516 4.850
39.516 4.757 4.849
39.386 4.988 4.847
39.276 5.229 4.846
39.096 5.469 4.845
38.826 5.700 4.843
38.706 5.941 4.842
38.436 6.181 4.850
38.276 6.422 4.849
37.926 6.653 4.847
37.236 6.892 4.866
36.716 7.132 4.875
36.236 7.382 4.885
35.956 7.612 4.893
35.346 7.862 4.903
38.486 -12.335 5.088
38.076 -12.577 5.110
38.886 -12.092 5.067
39.226 -11.850 5.046
39.526 -11.608 5.035
39.876 -11.366 5.014
40.046 -11.124 5.003
40.256 -10.883 4.992
40.436 -10.641 4.981
40.526 -10.399 4.970
40.536 -10.168 4.958
40.596 -9.927 4.957
40.646 -9.695 4.945
40.646 -9.454 4.944
40.746 -9.213 4.933
40.716 -8.982 4.931
40.716 -8.740 4.920
40.756 -8.510 4.918
40.706 -8.268 4.907
40.686 -8.037 4.905
40.646 -7.795 4.894
40.596 -7.565 4.892
40.556 -7.324 4.891
40.726 -7.082 4.880
41.126 -6.850 4.858
44.996 -6.096 4.717
44.526 -6.329 4.739
45.386 -5.854 4.696
45.596 -5.612 4.685
45.896 -5.381 4.673
45.976 -5.139 4.662
46.186 -4.907 4.650
46.286 -4.666 4.639
46.286 -4.434 4.627
46.386 -4.193 4.626
46.396 -3.962 4.614
46.306 -3.731 4.612
46.346 -3.489 4.601
46.356 -3.258 4.599
46.246 -3.017 4.598
46.256 -2.786 4.586
46.136 -2.555 4.584
45.896 -2.315 4.593
45.866 -2.083 4.581
45.656 -1.853 4.589
45.436 -1.612 4.588
45.146 -1.382 4.586
44.806 -1.151 4.594
44.366 -0.911 4.603
41.786 -0.224 4.667
41.756 -0.455 4.669
41.466 0.016 4.676
41.336 0.247 4.664
41.246 0.488 4.663
41.316 0.729 4.662
41.316 0.961 4.650
41.346 1.202 4.649
41.226 1.432 4.647
41.246 1.674 4.636
41.156 1.905 4.634
41.056 2.146 4.633
40.976 2.377 4.621
40.956 2.618 4.620
40.776 2.849 4.618
40.606 3.090 4.617
40.556 3.321 4.615
40.386 3.562 4.614
40.266 3.802 4.613
40.096 4.033 4.611
39.956 4.274 4.610
39.896 4.505 4.608
39.696 4.746 4.607
39.486 4.987 4.606
39.316 5.217 4.604
39.106 5.458 4.603
38.856 5.698 4.612
38.726 5.939 4.611
38.496 6.170 4.609
38.256 6.411 4.608
37.926 6.651 4.617
37.476 6.891 4.625
36.846 7.131 4.634
36.546 7.371 4.643
36.216 7.612 4.642
35.636 7.851 4.661
38.516 -12.346 4.847
38.026 -12.588 4.868
38.926 -12.093 4.827
39.326 -11.851 4.806
39.646 -11.609 4.794
39.886 -11.367 4.773
40.136 -11.125 4.762
40.266 -10.884 4.751
40.386 -10.652 4.739
40.576 -10.410 4.728
40.596 -10.170 4.727
40.626 -9.938 4.715
40.626 -9.697 4.714
40.706 -9.456 4.703
40.796 -9.224 4.691
40.816 -8.983 4.690
40.826 -8.751 4.678
40.786 -8.511 4.677
40.736 -8.280 4.675
40.766 -8.038 4.664
40.686 -7.807 4.662
40.696 -7.566 4.651
40.626 -7.335 4.649
40.796 -7.093 4.638
41.076 -6.852 4.627
45.126 -6.097 4.476
44.626 -6.340 4.497
45.556 -5.855 4.455
45.786 -5.623 4.443
46.066 -5.382 4.432
46.216 -5.140 4.421
46.306 -4.908 4.409
46.376 -4.677 4.397
46.396 -4.436 4.396
46.496 -4.204 4.384
46.456 -3.964 4.383
46.406 -3.732 4.371
46.396 -3.501 4.369
46.436 -3.259 4.358
46.426 -3.029 4.356
46.346 -2.788 4.355
46.256 -2.557 4.353
46.076 -2.326 4.351
45.976 -2.085 4.350
45.736 -1.854 4.348
45.566 -1.623 4.347
45.236 -1.393 4.355
44.876 -1.153 4.354
44.456 -0.922 4.362
41.806 -0.225 4.427
41.756 -0.457 4.438
41.496 0.005 4.435
41.406 0.245 4.433
41.396 0.487 4.422
41.366 0.718 4.421
41.326 0.959 4.419
41.336 1.190 4.408
41.426 1.432 4.396
41.276 1.663 4.395
41.186 1.904 4.393
41.166 2.135 4.392
41.096 2.375 4.390
40.996 2.607 4.379
40.906 2.848 4.377
40.726 3.079 4.376
40.656 3.320 4.374
40.516 3.560 4.373
40.306 3.791 4.371
40.186 4.032 4.370
40.036 4.263 4.368
39.946 4.504 4.367
39.726 4.745 4.366
39.566 4.975 4.364
39.356 5.216 4.363
39.156 5.456 4.372
38.956 5.687 4.370
38.746 5.928 4.369
38.586 6.169 4.368
38.356 6.410 4.367
37.966 6.640 4.375
37.406 6.880 4.384
37.066 7.120 4.393
36.726 7.361 4.392
36.396 7.601 4.400
35.846 7.841 4.409
35.016 8.091 4.670
35.296 8.081 4.418
32.796 8.819 4.727
33.356 8.580 4.708
33.046 8.819 4.476
33.746 8.569 4.457
37.356 -12.841 4.898
38.006 -12.589 4.627
37.566 -12.842 4.647
38.696 -12.347 4.606
39.006 -12.104 4.585
39.346 -11.863 4.574
39.626 -11.620 4.553
40.016 -11.368 4.533
40.216 -11.126 4.522
40.386 -10.895 4.510
40.526 -10.653 4.499
40.646 -10.412 4.488
40.666 -10.181 4.486
40.776 -9.939 4.475
40.836 -9.698 4.463
40.876 -9.467 4.462
40.886 -9.225 4.450
40.896 -8.994 4.449
40.906 -8.753 4.438
40.896 -8.512 4.436
40.876 -8.281 4.435
40.846 -8.039 4.423
40.726 -7.808 4.422
40.726 -7.568 4.420
40.636 -7.336 4.409
40.746 -7.095 4.407
41.066 -6.863 4.386
45.366 -6.099 4.235
44.806 -6.341 4.256
45.716 -5.856 4.214
46.006 -5.624 4.202
46.116 -5.383 4.191
46.336 -5.151 4.179
46.466 -4.910 4.168
46.526 -4.678 4.156
46.566 -4.437 4.155
46.626 -4.205 4.143
46.636 -3.975 4.141
46.626 -3.733 4.130
46.616 -3.502 4.129
46.566 -3.270 4.117
46.546 -3.030 4.116
46.536 -2.799 4.114
46.436 -2.558 4.113
46.256 -2.327 4.111
46.116 -2.096 4.109
45.856 -1.865 4.107
45.566 -1.625 4.116
45.276 -1.394 4.114
44.966 -1.164 4.122
44.526 -0.924 4.131
41.736 -0.227 4.196
41.806 -0.468 4.197
41.556 0.004 4.194
41.436 0.244 4.193
41.366 0.475 4.191
41.486 0.717 4.180
41.376 0.948 4.178
41.416 1.189 4.167
41.396 1.420 4.165
41.356 1.661 4.164
41.286 1.893 4.152
41.236 2.133 4.151
41.076 2.364 4.149
41.066 2.605 4.148
40.996 2.837 4.136
40.856 3.078 4.135
40.686 3.318 4.134
40.506 3.549 4.142
40.406 3.790 4.131
40.336 4.021 4.129
40.116 4.262 4.128
39.936 4.503 4.127
39.766 4.733 4.135
39.616 4.974 4.134
39.366 5.204 4.132
39.206 5.445 4.131
39.066 5.686 4.129
38.886 5.927 4.128
38.556 6.158 4.126
38.356 6.398 4.135
37.946 6.639 4.134
37.626 6.879 4.143
37.236 7.119 4.152
36.866 7.360 4.151
36.496 7.600 4.160
36.056 7.840 4.169
35.436 8.080 4.177
34.756 8.330 4.438
34.936 8.320 4.186
33.416 8.808 4.225
33.946 8.558 4.215
36.726 -13.096 4.688
37.886 -12.843 4.407
37.146 -13.096 4.437
38.276 -12.600 4.385
38.886 -12.347 4.355
39.276 -12.106 4.344
39.536 -11.863 4.323
39.776 -11.622 4.312
40.126 -11.379 4.291
40.236 -11.138 4.290
40.386 -10.897 4.279
40.546 -10.655 4.268
40.656 -10.423 4.256
40.756 -10.182 4.245
40.836 -9.940 4.234
40.886 -9.709 4.232
40.906 -9.468 4.221
40.996 -9.226 4.210
40.976 -8.995 4.208
40.976 -8.754 4.207
40.926 -8.523 4.195
40.896 -8.282 4.194
40.836 -8.051 4.192
40.816 -7.810 4.181
40.736 -7.579 4.179
40.796 -7.337 4.168
40.866 -7.106 4.166
41.026 -6.865 4.155
45.586 -6.100 3.994
44.896 -6.342 4.015
45.876 -5.867 3.972
46.146 -5.626 3.961
46.306 -5.394 3.950
46.466 -5.152 3.938
46.656 -4.921 3.927
46.696 -4.679 3.916
46.746 -4.448 3.914
46.816 -4.207 3.903
46.816 -3.976 3.901
46.836 -3.744 3.889
46.726 -3.503 3.888
46.796 -3.272 3.876
46.786 -3.041 3.874
46.586 -2.800 3.873
46.506 -2.569 3.871
46.346 -2.338 3.869
46.166 -2.097 3.868
45.916 -1.866 3.866
45.586 -1.636 3.874
45.306 -1.396 3.883
45.076 -1.166 3.881
44.336 -0.936 3.899
42.606 -0.697 4.179
41.736 -0.470 3.966
42.256 -0.710 3.957
41.726 -0.239 3.964
41.446 0.002 3.963
41.256 0.233 3.961
41.276 0.473 3.960
41.366 0.705 3.948
41.376 0.947 3.937
41.376 1.177 3.935
41.266 1.418 3.934
41.356 1.650 3.922
41.336 1.891 3.921
41.276 2.122 3.909
41.136 2.363 3.908
41.126 2.594 3.906
41.016 2.835 3.905
40.996 3.067 3.893
40.826 3.307 3.892
40.636 3.547 3.901
40.366 3.778 3.899
40.316 4.019 3.898
40.086 4.250 3.896
39.996 4.491 3.895
39.816 4.732 3.894
39.666 4.963 3.892
39.486 5.203 3.891
39.316 5.444 3.890
39.156 5.675 3.888
39.026 5.916 3.887
38.656 6.156 3.896
38.416 6.397 3.894
38.006 6.627 3.903
37.716 6.868 3.901
37.496 7.108 3.900
36.956 7.349 3.909
36.716 7.589 3.918
36.176 7.829 3.927
35.646 8.069 3.936
35.156 8.309 3.945
33.726 8.798 3.973
34.386 8.558 3.964
38.036 -12.844 4.166
37.366 -13.096 4.186
38.526 -12.601 4.135
39.066 -12.348 4.114
39.316 -12.107 4.103
39.716 -11.864 4.082
39.876 -11.623 4.071
40.206 -11.381 4.060
40.296 -11.139 4.049
40.396 -10.908 4.037
40.546 -10.666 4.026
40.716 -10.425 4.015
40.816 -10.183 4.004
40.916 -9.952 4.002
40.976 -9.710 3.991
40.946 -9.470 3.990
41.066 -9.238 3.978
41.056 -8.996 3.967
41.046 -8.766 3.965
40.916 -8.525 3.964
40.966 -8.293 3.952
40.936 -8.052 3.951
40.876 -7.821 3.949
40.896 -7.580 3.938
40.956 -7.348 3.926
40.886 -7.107 3.925
40.886 -6.876 3.923
45.686 -6.111 3.753
45.026 -6.353 3.774
46.046 -5.868 3.732
46.306 -5.627 3.721
46.536 -5.395 3.709
46.656 -5.153 3.698
46.766 -4.922 3.686
46.856 -4.690 3.674
46.896 -4.449 3.673
46.986 -4.218 3.661
46.806 -3.977 3.660
46.906 -3.746 3.658
46.906 -3.514 3.646
46.816 -3.273 3.645
46.776 -3.043 3.643
46.676 -2.811 3.631
46.596 -2.570 3.630
46.416 -2.339 3.628
46.226 -2.109 3.636
45.986 -1.868 3.635
45.816 -1.638 3.633
45.406 -1.407 3.641
45.096 -1.167 3.640
44.226 -0.938 3.668
41.896 -0.481 3.724
42.226 -0.711 3.716
41.766 -0.240 3.723
41.396 -0.010 3.731
41.316 0.231 3.720
41.296 0.462 3.718
41.356 0.704 3.707
41.436 0.935 3.705
41.446 1.176 3.694
41.386 1.407 3.692
41.316 1.648 3.691
41.336 1.880 3.679
41.316 2.121 3.678
41.256 2.352 3.666
41.166 2.593 3.665
41.056 2.824 3.663
41.006 3.065 3.662
40.786 3.306 3.661
40.646 3.536 3.659
40.566 3.777 3.658
40.306 4.008 3.656
40.146 4.249 3.655
40.036 4.490 3.654
39.906 4.721 3.652
39.736 4.961 3.651
39.536 5.192 3.649
39.406 5.433 3.648
39.216 5.674 3.647
38.966 5.915 3.646
38.736 6.145 3.654
38.566 6.386 3.653
38.186 6.626 3.652
37.956 6.867 3.661
37.506 7.107 3.669
37.236 7.337 3.668
36.916 7.578 3.666
36.266 7.818 3.685
35.886 8.058 3.694
35.276 8.308 3.704
34.006 8.787 3.731
34.366 8.547 3.723
37.996 -12.855 3.924
37.436 -13.097 3.945
38.546 -12.603 3.904
39.106 -12.349 3.874
39.436 -12.108 3.862
39.856 -11.865 3.841
39.966 -11.624 3.830
40.276 -11.382 3.819
40.336 -11.151 3.807
40.496 -10.909 3.796
40.686 -10.667 3.785
40.736 -10.426 3.784
40.836 -10.195 3.772
40.946 -9.953 3.761
41.026 -9.712 3.750
41.016 -9.481 3.748
41.056 -9.239 3.737
41.046 -9.008 3.735
41.076 -8.767 3.724
41.046 -8.536 3.722
41.026 -8.294 3.711
40.976 -8.063 3.709
40.946 -7.822 3.708
40.976 -7.591 3.696
40.906 -7.350 3.695
40.836 -7.119 3.693
40.916 -6.878 3.682
45.826 -6.112 3.512
45.046 -6.355 3.543
46.146 -5.870 3.501
46.416 -5.638 3.479
46.626 -5.396 3.468
46.806 -5.164 3.456
46.986 -4.923 3.445
47.026 -4.692 3.443
47.076 -4.450 3.432
47.056 -4.220 3.430
47.006 -3.988 3.418
46.966 -3.747 3.417
47.006 -3.515 3.405
47.026 -3.285 3.403
46.886 -3.044 3.402
46.816 -2.813 3.400
46.736 -2.581 3.388
46.486 -2.341 3.397
46.306 -2.110 3.395
46.156 -1.879 3.394
45.936 -1.639 3.392
45.506 -1.409 3.401
45.146 -1.178 3.409
41.856 -0.483 3.493
42.196 -0.723 3.485
41.736 -0.251 3.482
41.236 -0.012 3.500
41.216 0.220 3.489
41.296 0.461 3.477
41.296 0.692 3.476
41.526 0.934 3.464
41.526 1.165 3.453
41.466 1.406 3.452
41.426 1.637 3.450
41.336 1.878 3.449
41.206 2.109 3.437
41.226 2.350 3.436
41.176 2.581 3.434
41.066 2.822 3.433
40.896 3.063 3.431
40.816 3.294 3.420
40.666 3.535 3.418
40.556 3.766 3.417
40.286 4.006 3.425
40.216 4.238 3.414
40.096 4.479 3.412
39.956 4.719 3.411
39.736 4.950 3.409
39.606 5.191 3.408
39.466 5.432 3.407
39.196 5.662 3.415
39.066 5.903 3.414
38.856 6.144 3.413
38.586 6.375 3.411
38.316 6.615 3.410
37.946 6.855 3.419
37.596 7.096 3.428
37.356 7.336 3.427
36.976 7.576 3.436
36.396 7.816 3.444
35.986 8.056 3.453
35.406 8.297 3.462
34.186 8.787 3.481
34.766 8.537 3.471
33.166 9.036 3.751
33.476 9.026 3.500
36.816 -13.350 3.975
37.706 -13.098 3.704
37.026 -13.352 3.735
38.256 -12.856 3.683
38.586 -12.604 3.663
39.116 -12.361 3.642
39.426 -12.119 3.621
39.906 -11.866 3.601
40.026 -11.636 3.599
40.286 -11.393 3.578
40.446 -11.152 3.567
40.596 -10.910 3.556
40.736 -10.668 3.544
40.856 -10.438 3.543
40.886 -10.196 3.531
40.916 -9.964 3.520
40.926 -9.723 3.519
41.006 -9.482 3.507
41.016 -9.251 3.506
41.056 -9.009 3.494
41.076 -8.779 3.493
41.106 -8.537 3.481
41.086 -8.306 3.480
40.996 -8.064 3.469
41.016 -7.834 3.467
40.956 -7.593 3.466
40.976 -7.351 3.454
40.906 -7.120 3.453
40.896 -6.879 3.441
41.716 -6.634 3.651
41.556 -6.636 3.420
45.886 -6.113 3.271
45.086 -6.366 3.301
46.276 -5.881 3.259
46.576 -5.639 3.238
46.796 -5.407 3.226
47.026 -5.166 3.215
47.056 -4.935 3.213
47.096 -4.693 3.202
47.246 -4.461 3.190
47.226 -4.221 3.189
47.176 -3.989 3.177
47.246 -3.758 3.175
47.206 -3.517 3.164
47.136 -3.286 3.163
47.136 -3.055 3.161
47.046 -2.814 3.160
46.856 -2.583 3.158
46.646 -2.352 3.156
46.386 -2.121 3.154
46.166 -1.881 3.163
45.966 -1.650 3.161
45.466 -1.420 3.169
45.036 -1.180 3.178
41.846 -0.494 3.252
41.956 -0.725 3.254
41.676 -0.253 3.251
41.326 -0.023 3.259
41.236 0.218 3.258
41.296 0.449 3.246
41.356 0.691 3.235
41.586 0.923 3.223
41.556 1.163 3.222
41.546 1.395 3.210
41.496 1.636 3.209
41.386 1.867 3.207
41.316 2.108 3.206
41.326 2.339 3.194
41.136 2.580 3.193
41.066 2.821 3.192
40.996 3.052 3.190
40.846 3.293 3.189
40.756 3.523 3.187
40.556 3.764 3.186
40.346 3.995 3.184
40.196 4.236 3.183
40.026 4.477 3.182
39.896 4.708 3.180
39.836 4.948 3.179
39.576 5.189 3.177
39.466 5.420 3.176
39.206 5.661 3.174
39.076 5.902 3.173
38.966 6.133 3.171
38.726 6.373 3.170
38.336 6.614 3.179
38.096 6.854 3.178
37.826 7.085 3.176
37.386 7.325 3.185
37.096 7.565 3.194
36.566 7.805 3.203
36.176 8.046 3.202
35.536 8.285 3.221
35.076 8.535 3.230
34.446 8.776 3.239
33.726 9.015 3.258
37.866 -13.100 3.463
37.146 -13.352 3.484
38.496 -12.856 3.432
38.706 -12.615 3.421
39.106 -12.362 3.401
39.486 -12.121 3.390
39.986 -11.878 3.369
40.146 -11.637 3.358
40.346 -11.394 3.337
40.476 -11.154 3.336
40.606 -10.922 3.324
40.726 -10.680 3.313
40.876 -10.439 3.302
40.966 -10.197 3.291
40.976 -9.966 3.289
40.976 -9.725 3.278
41.056 -9.494 3.276
41.086 -9.252 3.265
41.066 -9.021 3.263
41.076 -8.780 3.252
41.086 -8.549 3.250
41.106 -8.307 3.239
41.056 -8.066 3.238
41.046 -7.835 3.226
40.986 -7.594 3.225
40.886 -7.363 3.223
41.016 -7.121 3.212
40.976 -6.890 3.210
41.236 -6.648 3.189
46.426 -5.882 3.018
46.096 -6.124 3.029
46.616 -5.641 3.007
46.836 -5.409 2.995
47.076 -5.167 2.984
47.206 -4.936 2.972
47.236 -4.704 2.961
47.266 -4.463 2.959
47.326 -4.232 2.948
47.306 -3.991 2.947
47.386 -3.759 2.935
47.366 -3.528 2.933
47.336 -3.287 2.922
47.276 -3.056 2.920
47.186 -2.825 2.918
46.996 -2.584 2.917
46.836 -2.353 2.915
46.556 -2.123 2.913
46.196 -1.892 2.921
45.906 -1.652 2.920
45.476 -1.422 2.928
44.996 -1.191 2.936
41.856 -0.496 3.021
41.966 -0.737 3.022
41.696 -0.265 3.019
41.296 -0.024 3.018
41.326 0.207 3.016
41.326 0.448 3.005
41.396 0.679 3.003
41.506 0.921 2.992
41.496 1.152 2.980
41.556 1.393 2.979
41.516 1.625 2.967
41.376 1.866 2.966
41.346 2.096 2.964
41.296 2.337 2.963
41.126 2.578 2.962
41.086 2.810 2.950
40.976 3.051 2.949
40.766 3.281 2.947
40.736 3.522 2.946
40.516 3.753 2.944
40.416 3.994 2.943
40.166 4.235 2.942
40.026 4.466 2.940
39.896 4.707 2.939
39.766 4.937 2.937
39.546 5.178 2.936
39.456 5.419 2.935
39.216 5.650 2.933
39.086 5.891 2.932
38.946 6.132 2.931
38.726 6.362 2.929
38.356 6.602 2.938
38.186 6.843 2.937
37.936 7.084 2.935
37.466 7.324 2.944
37.196 7.564 2.953
36.746 7.805 2.952
36.206 8.044 2.971
35.496 8.284 2.980
35.186 8.524 2.989
34.716 8.765 2.987
33.946 9.004 3.006
37.956 -13.111 3.222
37.196 -13.364 3.252
38.516 -12.857 3.192
38.986 -12.616 3.181
39.306 -12.363 3.160
39.626 -12.122 3.149
40.016 -11.879 3.128
40.156 -11.638 3.117
40.436 -11.396 3.106
40.556 -11.165 3.094
40.576 -10.923 3.083
40.776 -10.681 3.072
40.916 -10.450 3.060
41.016 -10.208 3.049
41.036 -9.967 3.048
41.106 -9.736 3.036
41.136 -9.495 3.035
41.126 -9.263 3.023
41.166 -9.022 3.022
41.156 -8.781 3.011
41.176 -8.550 3.009
41.146 -8.308 2.998
41.096 -8.077 2.996
41.016 -7.837 2.995
41.016 -7.605 2.983
41.056 -7.364 2.982
41.156 -7.132 2.970
41.106 -6.892 2.969
41.256 -6.660 2.957
46.516 -5.883 2.778
46.286 -6.125 2.789
46.706 -5.652 2.766
46.976 -5.410 2.755
47.206 -5.179 2.743
47.246 -4.937 2.732
47.346 -4.705 2.720
47.426 -4.464 2.719
47.446 -4.233 2.707
47.476 -4.002 2.705
47.516 -3.760 2.694
47.436 -3.530 2.692
47.406 -3.299 2.690
47.256 -3.058 2.689
47.156 -2.826 2.677
47.116 -2.595 2.675
46.966 -2.364 2.673
46.596 -2.124 2.682
46.296 -1.894 2.680
46.006 -1.663 2.688
45.516 -1.433 2.696
45.086 -1.193 2.705
41.906 -0.507 2.779
41.956 -0.738 2.781
41.686 -0.266 2.778
41.316 -0.036 2.786
41.356 0.205 2.775
41.396 0.436 2.773
41.366 0.678 2.762
41.426 0.909 2.760
41.566 1.150 2.749
41.486 1.382 2.737
41.456 1.623 2.736
41.466 1.854 2.734
41.376 2.095 2.723
41.336 2.326 2.721
41.186 2.567 2.720
41.006 2.808 2.719
41.006 3.039 2.717
40.836 3.280 2.716
40.766 3.511 2.704
40.586 3.752 2.703
40.496 3.983 2.701
40.176 4.223 2.710
40.126 4.465 2.699
39.926 4.695 2.707
39.726 4.935 2.706
39.606 5.176 2.705
39.486 5.408 2.693
39.356 5.649 2.692
39.196 5.890 2.691
39.046 6.120 2.689
38.696 6.361 2.698
38.346 6.601 2.697
38.296 6.832 2.695
37.976 7.072 2.704
37.596 7.313 2.703
37.116 7.553 2.712
36.816 7.793 2.720
36.336 8.034 2.719
35.796 8.273 2.738
35.446 8.514 2.737
34.916 8.754 2.746
33.996 9.003 2.765
33.126 9.254 3.026
33.396 9.243 2.784
36.706 -13.606 3.273
37.546 -13.354 3.002
37.066 -13.606 3.022
38.006 -13.112 2.981
38.586 -12.859 2.961
39.036 -12.617 2.940
39.406 -12.375 2.919
39.636 -12.133 2.908
39.976 -11.891 2.887
40.186 -11.649 2.875
40.446 -11.407 2.864
40.526 -11.166 2.853
40.636 -10.925 2.852
40.856 -10.692 2.830
40.936 -10.452 2.829
41.016 -10.210 2.818
41.076 -9.978 2.806
41.106 -9.738 2.805
41.156 -9.496 2.794
41.176 -9.265 2.792
41.136 -9.023 2.781
41.146 -8.793 2.779
41.156 -8.551 2.768
41.146 -8.320 2.766
41.076 -8.079 2.765
41.056 -7.848 2.753
41.046 -7.607 2.752
41.006 -7.375 2.740
41.076 -7.134 2.739
41.146 -6.903 2.727
41.276 -6.661 2.716
46.676 -5.895 2.536
46.326 -6.127 2.558
46.986 -5.653 2.525
47.056 -5.421 2.513
47.366 -5.180 2.502
47.446 -4.948 2.490
47.486 -4.707 2.489
47.566 -4.476 2.477
47.586 -4.235 2.476
47.606 -4.003 2.464
47.516 -3.772 2.462
47.586 -3.531 2.451
47.426 -3.300 2.449
47.346 -3.069 2.447
47.276 -2.838 2.445
47.146 -2.597 2.444
47.016 -2.366 2.442
46.806 -2.135 2.441
46.466 -1.895 2.439
46.076 -1.665 2.448
45.626 -1.435 2.456
45.156 -1.204 2.464
42.616 -0.968 2.773
42.136 -0.749 2.540
42.626 -0.979 2.532
41.946 -0.508 2.539
41.656 -0.278 2.547
41.366 -0.037 2.545
41.386 0.194 2.534
41.306 0.435 2.533
41.406 0.666 2.531
41.486 0.908 2.520
41.516 1.139 2.508
41.446 1.380 2.507
41.516 1.612 2.495
41.466 1.853 2.494
41.396 2.084 2.492
41.256 2.324 2.491
41.176 2.565 2.489
41.056 2.797 2.478
40.896 3.038 2.477
40.886 3.269 2.475
40.706 3.509 2.474
40.566 3.740 2.472
40.336 3.981 2.471
40.216 4.222 2.469
40.146 4.453 2.468
39.846 4.694 2.466
39.776 4.924 2.465
39.636 5.165 2.463
39.486 5.406 2.462
39.416 5.637 2.460
39.246 5.878 2.459
39.046 6.119 2.458
38.676 6.359 2.457
38.546 6.590 2.455
38.296 6.830 2.464
38.046 7.071 2.463
37.736 7.312 2.462
37.216 7.552 2.471
36.986 7.783 2.469
36.516 8.023 2.478
35.936 8.273 2.487
35.426 8.513 2.496
35.026 8.753 2.505
34.206 8.992 2.524
33.486 9.242 2.543
37.766 -13.355 2.761
37.056 -13.608 2.781
38.276 -13.112 2.730
38.756 -12.870 2.719
39.166 -12.618 2.699
39.596 -12.376 2.678
39.836 -12.134 2.667
40.066 -11.892 2.656
40.286 -11.650 2.635
40.476 -11.408 2.624
40.606 -11.178 2.622
40.816 -10.935 2.601
40.916 -10.694 2.600
41.026 -10.453 2.588
41.096 -10.221 2.577
41.136 -9.980 2.575
41.146 -9.739 2.564
41.196 -9.507 2.553
41.256 -9.266 2.551
41.246 -9.035 2.540
41.246 -8.794 2.538
41.206 -8.563 2.537
41.176 -8.321 2.525
41.106 -8.090 2.524
41.086 -7.850 2.522
41.136 -7.618 2.511
40.956 -7.377 2.509
40.946 -7.146 2.508
40.996 -6.905 2.497
41.106 -6.673 2.485
46.846 -5.896 2.295
46.446 -6.138 2.316
47.126 -5.654 2.284
47.346 -5.422 2.272
47.526 -5.181 2.261
47.636 -4.949 2.249
47.666 -4.718 2.247
47.656 -4.477 2.236
47.706 -4.246 2.234
47.706 -4.004 2.223
47.666 -3.773 2.221
47.736 -3.542 2.209
47.596 -3.311 2.208
47.496 -3.070 2.206
47.376 -2.839 2.205
47.336 -2.608 2.203
47.126 -2.367 2.202
46.936 -2.137 2.200
46.616 -1.907 2.208
46.176 -1.676 2.206
45.836 -1.436 2.215
45.406 -1.206 2.223
42.216 -0.750 2.299
42.646 -0.981 2.301
41.936 -0.520 2.307
41.546 -0.279 2.306
41.396 -0.048 2.304
41.436 0.193 2.303
41.426 0.424 2.291
41.416 0.665 2.290
41.486 0.897 2.278
41.496 1.137 2.277
41.436 1.368 2.275
41.526 1.610 2.264
41.476 1.852 2.253
41.446 2.082 2.251
41.286 2.323 2.250
41.226 2.554 2.248
41.096 2.795 2.247
40.996 3.026 2.245
40.886 3.267 2.234
40.706 3.498 2.232
40.576 3.739 2.231
40.426 3.980 2.230
40.236 4.211 2.228
39.976 4.451 2.237
39.986 4.682 2.225
39.786 4.923 2.224
39.656 5.164 2.223
39.536 5.395 2.221
39.406 5.636 2.220
39.266 5.877 2.218
39.046 6.108 2.217
38.726 6.348 2.225
38.596 6.588 2.224
38.286 6.829 2.223
37.986 7.060 2.221
37.816 7.301 2.220
37.426 7.541 2.229
37.066 7.781 2.238
36.726 8.022 2.237
36.116 8.262 2.246
35.516 8.502 2.255
35.126 8.742 2.263
34.656 8.982 2.272
33.886 9.231 2.292
37.736 -13.366 2.520
37.216 -13.619 2.540
38.396 -13.113 2.489
38.796 -12.872 2.478
39.136 -12.629 2.457
39.646 -12.377 2.437
39.936 -12.135 2.426
40.166 -11.894 2.415
40.336 -11.652 2.404
40.546 -11.420 2.392
40.736 -11.179 2.381
40.826 -10.937 2.370
40.826 -10.705 2.358
41.056 -10.464 2.347
41.086 -10.223 2.346
41.136 -9.981 2.335
41.096 -9.750 2.333
41.156 -9.509 2.322
41.186 -9.277 2.310
41.266 -9.036 2.309
41.266 -8.805 2.297
41.226 -8.564 2.296
41.156 -8.333 2.294
41.166 -8.091 2.283
41.136 -7.861 2.281
41.136 -7.619 2.270
40.996 -7.388 2.268
40.876 -7.147 2.267
40.796 -6.916 2.265
40.826 -6.675 2.254
41.936 -6.420 2.454
41.616 -6.432 2.233
46.966 -5.898 2.064
46.626 -6.139 2.075
47.176 -5.666 2.052
47.326 -5.424 2.041
47.596 -5.193 2.029
47.666 -4.951 2.018
47.706 -4.719 2.006
47.776 -4.489 2.005
47.806 -4.247 1.993
47.876 -4.015 1.982
47.846 -3.784 1.980
47.836 -3.544 1.979
47.736 -3.313 1.977
47.676 -3.081 1.965
47.526 -2.840 1.964
47.436 -2.609 1.962
47.316 -2.379 1.960
46.926 -2.148 1.968
46.636 -1.908 1.967
46.226 -1.678 1.975
45.966 -1.447 1.973
45.236 -1.217 1.991
42.506 -0.751 2.058
42.706 -0.992 2.059
42.006 -0.521 2.066
41.496 -0.291 2.074
41.406 -0.050 2.073
41.336 0.181 2.071
41.506 0.422 2.060
41.496 0.654 2.048
41.476 0.895 2.047
41.466 1.126 2.035
41.406 1.367 2.034
41.446 1.608 2.033
41.516 1.840 2.021
41.446 2.081 2.020
41.356 2.312 2.008
41.256 2.553 2.007
41.186 2.784 2.005
41.036 3.025 2.004
40.846 3.256 2.002
40.876 3.497 1.991
40.626 3.727 1.999
40.426 3.968 1.998
40.166 4.209 1.997
40.106 4.440 1.995
40.026 4.681 1.994
39.896 4.912 1.982
39.676 5.152 1.991
39.476 5.393 1.990
39.356 5.624 1.988
39.346 5.866 1.977
39.026 6.106 1.986
38.816 6.336 1.984
38.596 6.577 1.983
38.356 6.818 1.982
38.056 7.059 1.981
37.946 7.290 1.979
37.456 7.530 1.987
37.086 7.770 1.996
36.706 8.011 1.995
36.146 8.250 2.014
35.656 8.501 2.014
35.356 8.741 2.023
34.926 8.982 2.021
37.986 -13.367 2.279
37.476 -13.620 2.299
38.456 -13.125 2.258
38.946 -12.873 2.237
39.296 -12.630 2.216
39.846 -12.378 2.196
40.086 -12.136 2.185
40.206 -11.905 2.173
40.426 -11.663 2.162
40.636 -11.421 2.151
40.776 -11.180 2.140
40.886 -10.938 2.129
40.946 -10.707 2.117
41.046 -10.466 2.116
41.116 -10.224 2.105
41.166 -9.992 2.093
41.266 -9.752 2.092
41.296 -9.520 2.080
41.236 -9.279 2.079
41.296 -9.047 2.067
41.286 -8.807 2.066
41.236 -8.575 2.054
41.226 -8.334 2.053
41.196 -8.103 2.051
41.176 -7.862 2.040
41.146 -7.631 2.038
41.036 -7.390 2.037
41.026 -7.158 2.025
40.796 -6.918 2.024
40.756 -6.687 2.022
41.096 -6.445 2.011
46.986 -5.909 1.823
46.566 -6.141 1.844
47.346 -5.667 1.812
47.486 -5.435 1.800
47.746 -5.194 1.789
47.846 -4.962 1.777
47.786 -4.721 1.776
47.886 -4.490 1.764
47.906 -4.258 1.752
47.896 -4.017 1.751
47.866 -3.786 1.749
47.836 -3.555 1.737
47.816 -3.314 1.736
47.796 -3.083 1.734
47.696 -2.851 1.722
47.616 -2.610 1.721
47.496 -2.380 1.719
47.036 -2.150 1.727
46.686 -1.919 1.735
46.356 -1.679 1.734
45.956 -1.449 1.742
42.446 -0.763 1.826
42.336 -0.994 1.828
42.126 -0.522 1.825
41.576 -0.292 1.833
41.426 -0.061 1.831
41.306 0.180 1.830
41.426 0.411 1.818
41.506 0.652 1.817
41.496 0.894 1.806
41.516 1.124 1.804
41.576 1.366 1.793
41.516 1.597 1.791
41.486 1.839 1.780
41.406 2.069 1.778
41.356 2.310 1.777
41.286 2.541 1.775
41.136 2.782 1.774
41.036 3.014 1.762
40.946 3.254 1.761
40.776 3.485 1.759
40.626 3.726 1.758
40.466 3.967 1.757
40.246 4.198 1.755
40.126 4.439 1.754
39.986 4.669 1.752
39.816 4.910 1.751
39.566 5.151 1.750
39.476 5.382 1.748
39.366 5.623 1.747
39.176 5.864 1.746
39.046 6.095 1.744
38.866 6.335 1.743
38.716 6.576 1.742
38.476 6.807 1.740
38.166 7.047 1.749
37.976 7.288 1.748
37.456 7.528 1.757
37.216 7.769 1.756
36.876 8.010 1.754
36.336 8.250 1.763
35.806 8.490 1.772
35.406 8.730 1.781
34.936 8.970 1.790
36.776 -13.862 2.320
37.626 -13.620 2.048
37.086 -13.863 2.079
38.126 -13.369 2.038
38.596 -13.126 2.017
39.016 -12.874 1.997
39.356 -12.631 1.976
39.816 -12.390 1.965
40.076 -12.147 1.943
40.256 -11.906 1.932
40.426 -11.664 1.921
40.616 -11.423 1.910
40.816 -11.191 1.898
40.816 -10.950 1.897
41.006 -10.708 1.886
41.096 -10.477 1.874
41.186 -10.235 1.863
41.206 -9.994 1.862
41.226 -9.763 1.850
41.236 -9.522 1.849
41.306 -9.290 1.837
41.336 -9.049 1.826
41.346 -8.808 1.825
41.226 -8.577 1.823
41.226 -8.345 1.811
41.226 -8.104 1.810
41.166 -7.874 1.808
41.046 -7.633 1.807
41.006 -7.401 1.795
40.976 -7.160 1.794
40.846 -6.929 1.792
40.846 -6.688 1.781
41.356 -6.445 1.760
47.186 -5.910 1.582
46.736 -6.152 1.603
47.486 -5.668 1.571
47.626 -5.436 1.559
47.856 -5.195 1.548
47.986 -4.963 1.536
48.126 -4.732 1.524
48.056 -4.491 1.523
48.036 -4.260 1.521
47.996 -4.028 1.509
47.876 -3.787 1.508
47.916 -3.557 1.506
47.976 -3.325 1.494
47.896 -3.084 1.493
47.816 -2.853 1.491
47.676 -2.622 1.489
47.496 -2.391 1.488
47.136 -2.151 1.486
46.766 -1.921 1.494
46.476 -1.690 1.493
45.986 -1.460 1.501
42.596 -0.764 1.585
42.706 -1.005 1.587
42.366 -0.533 1.584
41.886 -0.293 1.592
41.556 -0.062 1.591
41.566 0.178 1.589
41.456 0.409 1.588
41.436 0.651 1.576
41.446 0.882 1.575
41.446 1.123 1.564
41.516 1.354 1.562
41.546 1.596 1.551
41.426 1.827 1.549
41.276 2.068 1.548
41.256 2.298 1.546
41.216 2.540 1.535
41.116 2.771 1.533
40.986 3.012 1.532
40.966 3.243 1.530
40.796 3.483 1.529
40.586 3.724 1.527
40.506 3.956 1.516
40.316 4.196 1.524
40.106 4.427 1.523
39.966 4.668 1.521
39.816 4.908 1.520
39.596 5.139 1.518
39.486 5.380 1.517
39.266 5.621 1.516
39.156 5.852 1.514
39.096 6.093 1.503
38.916 6.324 1.501
38.756 6.565 1.500
38.506 6.806 1.499
38.306 7.046 1.508
38.036 7.277 1.506
37.686 7.518 1.505
37.436 7.758 1.514
36.926 7.999 1.513
36.426 8.239 1.522
35.896 8.479 1.531
35.596 8.719 1.539
35.016 8.969 1.549
34.176 9.220 1.799
34.526 9.209 1.558
37.716 -13.622 1.817
37.126 -13.874 1.838
38.106 -13.380 1.796
38.656 -13.127 1.776
39.066 -12.885 1.755
39.336 -12.643 1.744
39.766 -12.391 1.724
40.156 -12.148 1.703
40.306 -11.908 1.702
40.496 -11.676 1.690
40.726 -11.434 1.669
40.826 -11.193 1.668
40.936 -10.951 1.656
41.046 -10.719 1.645
41.186 -10.478 1.634
41.196 -10.237 1.632
41.256 -10.005 1.621
41.276 -9.765 1.619
41.266 -9.533 1.608
41.356 -9.291 1.596
41.326 -9.050 1.595
41.296 -8.820 1.593
41.226 -8.588 1.582
41.206 -8.347 1.581
41.216 -8.106 1.569
41.146 -7.875 1.568
41.056 -7.644 1.566
41.016 -7.403 1.565
40.946 -7.171 1.553
40.886 -6.931 1.552
40.796 -6.700 1.550
41.326 -6.457 1.529
47.246 -5.912 1.351
46.776 -6.154 1.372
47.636 -5.679 1.329
47.756 -5.438 1.318
48.006 -5.206 1.306
48.136 -4.964 1.295
48.216 -4.733 1.293
48.186 -4.502 1.281
48.136 -4.261 1.280
48.156 -4.030 1.278
48.116 -3.798 1.266
48.116 -3.558 1.265
48.076 -3.327 1.263
48.046 -3.095 1.252
48.056 -2.854 1.250
47.866 -2.623 1.249
47.636 -2.393 1.247
47.326 -2.162 1.245
46.866 -1.922 1.254
46.606 -1.692 1.262
46.156 -1.461 1.260
42.836 -0.775 1.344
42.966 -1.006 1.346
42.536 -0.534 1.343
42.046 -0.304 1.351
41.566 -0.064 1.360
41.436 0.167 1.358
41.466 0.408 1.347
41.466 0.639 1.345
41.436 0.881 1.334
41.396 1.112 1.332
41.456 1.353 1.321
41.436 1.584 1.319
41.436 1.826 1.308
41.336 2.056 1.306
41.276 2.297 1.305
41.206 2.528 1.303
41.166 2.770 1.292
41.066 3.001 1.290
40.956 3.241 1.289
40.816 3.472 1.287
40.686 3.713 1.286
40.436 3.954 1.285
40.246 4.185 1.283
40.056 4.426 1.282
39.836 4.666 1.281
39.706 4.897 1.279
39.556 5.138 1.278
39.536 5.369 1.276
39.416 5.610 1.275
39.296 5.851 1.274
39.086 6.082 1.272
38.856 6.322 1.271
38.706 6.563 1.269
38.466 6.794 1.268
38.416 7.035 1.266
38.146 7.276 1.265
37.806 7.517 1.264
37.536 7.757 1.273
37.076 7.997 1.272
36.656 8.237 1.281
36.166 8.478 1.290
35.776 8.718 1.299
35.156 8.958 1.307
34.676 9.198 1.316
37.886 -13.622 1.567
37.156 -13.875 1.597
38.246 -13.381 1.556
38.746 -13.128 1.535
39.236 -12.886 1.514
39.516 -12.644 1.503
39.846 -12.402 1.482
40.136 -12.160 1.471
40.356 -11.919 1.460
40.586 -11.677 1.449
40.756 -11.435 1.438
40.846 -11.194 1.427
40.896 -10.962 1.415
41.006 -10.721 1.414
41.166 -10.480 1.403
41.196 -10.248 1.391
41.256 -10.007 1.390
41.216 -9.776 1.378
41.326 -9.534 1.367
41.286 -9.293 1.366
41.326 -9.062 1.354
41.276 -8.821 1.353
41.266 -8.590 1.351
41.216 -8.348 1.340
41.186 -8.117 1.338
