-39.524 7.985 10.349
-39.784 7.936 10.596
31.496 15.904 -36.233
31.256 15.946 -36.380
31.246 15.825 -36.882
31.486 15.757 -36.656
31.006 15.852 -36.970
30.776 15.896 -37.147
30.536 15.934 -37.244
30.306 15.963 -37.362
30.066 16.032 -37.597
29.836 16.045 -37.637
29.596 16.085 -37.764
29.366 16.097 -37.793
29.126 16.104 -37.752
28.896 16.085 -37.633
28.656 16.127 -37.781
28.426 16.152 -37.849
28.196 16.147 -37.789
27.956 16.113 -37.611
27.726 16.061 -37.334
27.506 16.131 -36.567
27.496 15.995 -36.999
27.266 16.125 -36.487
27.256 15.963 -36.851
26.206 8.885 -4.647
25.966 8.831 -4.350
25.946 8.761 -5.118
26.196 8.771 -5.247
25.716 8.813 -4.241
25.706 8.700 -4.852
25.476 8.821 -4.220
25.466 8.677 -4.683
25.226 8.803 -4.121
25.216 8.674 -4.653
24.986 8.782 -3.983
24.976 8.697 -4.682
24.746 8.808 -4.051
24.736 8.663 -4.504
24.496 8.804 -4.011
24.486 8.660 -4.474
24.256 8.782 -3.852
24.246 8.683 -4.502
24.006 8.821 -3.970
23.996 8.692 -4.491
23.526 8.828 -3.929
23.276 8.887 -4.165
23.266 8.755 -4.657
23.516 8.743 -4.638
20.836 9.170 -4.955
20.596 9.164 -4.885
20.586 9.025 -5.408
20.836 8.997 -5.310
20.346 9.096 -5.673
20.106 9.137 -5.820
19.866 9.305 -5.396
19.856 9.194 -6.027
19.616 9.201 -5.996
19.376 9.241 -6.123
19.126 9.255 -6.172
18.886 9.309 -6.349
18.646 9.353 -6.516
18.406 9.390 -6.603
18.156 9.400 -6.612
17.916 9.444 -6.779
17.676 9.512 -7.015
17.436 9.542 -7.143
17.186 9.567 -7.201
16.946 9.594 -7.289
16.706 9.633 -7.396
16.466 9.657 -7.455
16.216 9.714 -7.661
15.976 9.758 -7.848
15.736 9.781 -7.886
15.496 9.821 -8.004
15.256 9.845 -8.062
15.006 9.875 -8.180
14.766 9.916 -8.317
14.526 9.986 -8.572
14.286 10.026 -8.700
14.046 10.040 -8.749
13.806 10.064 -8.797
13.566 10.075 -8.816
13.326 10.160 -9.130
13.076 10.171 -9.140
12.836 10.227 -9.336
12.596 10.268 -9.483
12.356 10.281 -9.512
12.116 10.307 -9.590
11.876 10.345 -9.698
11.636 10.355 -9.687
11.386 10.351 -9.637
11.146 10.390 -9.754
10.906 10.401 -9.773
10.666 10.413 -9.793
10.426 10.423 -9.792
10.176 10.435 -9.811
9.936 10.462 -9.909
9.696 10.502 -10.026
9.456 10.541 -10.144
9.216 10.581 -10.271
8.976 10.592 -10.280
8.736 10.572 -10.161
8.496 10.597 -10.220
8.246 10.609 -10.249
8.006 10.619 -10.238
7.766 10.600 -10.129
7.526 10.654 -10.305
7.286 10.667 -10.344
7.036 10.663 -10.295
6.796 10.686 -10.333
6.556 10.712 -10.411
6.316 10.695 -10.312
6.076 10.716 -10.331
5.826 10.696 -10.202
5.586 10.679 -10.113
5.336 10.703 -10.161
5.096 10.728 -10.229
4.856 10.758 -10.347
4.616 10.737 -10.209
4.376 10.775 -10.316
4.136 10.774 -10.296
3.886 10.780 -10.255
3.646 10.792 -10.274
3.406 10.818 -10.353
3.166 10.830 -10.372
2.916 10.790 -10.124
2.676 10.804 -10.173
2.426 10.780 -9.994
2.186 10.794 -10.044
1.946 10.790 -9.994
1.706 10.798 -9.963
1.456 10.791 -9.883
1.216 10.789 -9.853
0.966 10.770 -9.744
0.726 10.780 -9.734
0.486 10.773 -9.654
0.236 10.755 -9.545
-0.004 10.765 -9.554
-0.254 10.760 -9.484
-0.494 10.740 -9.356
-0.734 10.763 -9.394
-0.984 10.762 -9.384
-1.224 10.756 -9.304
-1.474 10.748 -9.205
-1.714 10.759 -9.224
-1.954 10.756 -9.174
-2.204 10.764 -9.153
-2.444 10.762 -9.133
-2.694 10.739 -8.965
-2.934 10.738 -8.955
-3.184 10.730 -8.855
-3.424 10.726 -8.805
-3.674 10.719 -8.715
-3.914 10.703 -8.636
-4.154 10.709 -8.586
-4.404 10.705 -8.536
-4.654 10.685 -8.407
-4.894 10.667 -8.298
-5.144 10.658 -8.188
-5.394 10.625 -8.031
-5.634 10.619 -7.951
-5.884 10.602 -7.862
-6.124 10.628 -7.940
-6.374 10.605 -7.771
-6.624 10.585 -7.643
-6.854 10.642 -7.859
-7.094 10.650 -7.838
-8.904 11.516 -11.321
-8.684 11.371 -10.750
-9.134 11.572 -11.517
-9.364 11.679 -11.990
-9.584 11.780 -12.373
-13.484 12.953 -16.835
-13.264 12.869 -16.531
-13.724 12.994 -16.972
-13.954 13.035 -17.109
-14.184 13.123 -17.464
-14.404 13.182 -17.700
-14.644 13.193 -17.719
-14.874 13.265 -17.994
-15.114 13.290 -18.052
-15.354 13.463 -17.698
-15.344 13.348 -18.279
-15.604 13.453 -17.578
-15.584 13.341 -18.189
-24.964 11.744 -9.628
-24.724 11.706 -9.520
-25.204 11.755 -9.637
-25.454 11.734 -9.498
-25.704 11.698 -9.300
-25.954 11.682 -9.221
-26.214 11.629 -8.925
-26.474 11.564 -8.619
-26.734 11.514 -8.362
-26.984 11.489 -8.173
-27.244 11.426 -7.877
-27.494 11.420 -7.798
-27.744 11.399 -7.659
-28.014 11.318 -7.274
-28.284 11.234 -6.839
-28.544 11.170 -6.543
-29.354 11.143 -5.181
-29.624 11.046 -4.707
-29.614 10.888 -5.121
-29.354 10.924 -5.319
-29.874 11.012 -4.529
-29.864 10.870 -5.022
-31.354 11.010 -4.249
-31.564 11.132 -4.781
-31.564 10.927 -4.977
-31.334 10.870 -4.771
-31.814 11.142 -4.780
-31.814 10.938 -4.987
-32.064 11.118 -4.601
-32.064 10.913 -4.798
-37.084 9.320 4.094
-37.344 9.286 4.272
-37.324 9.140 3.830
-37.074 9.146 3.760
-39.194 8.007 9.057
-38.944 8.007 9.047
31.956 15.641 -36.204
31.716 15.712 -36.469
31.706 15.595 -37.020
31.946 15.510 -36.696
31.466 15.639 -37.197
31.236 15.691 -37.343
30.996 15.732 -37.481
30.756 15.763 -37.619
30.526 15.830 -37.834
30.286 15.855 -37.902
30.056 15.885 -38.030
29.816 15.939 -38.197
29.586 15.935 -38.147
29.356 15.883 -37.870
29.116 15.942 -38.116
28.886 15.873 -37.750
28.656 15.884 -37.760
28.416 15.899 -37.819
28.186 15.936 -37.906
27.946 15.965 -38.024
27.716 15.941 -37.845
27.486 15.880 -37.579
27.246 15.813 -37.234
27.026 15.927 -36.653
27.016 15.776 -37.026
25.696 8.554 -5.285
25.946 8.541 -5.256
25.456 8.516 -5.067
25.206 8.529 -5.106
24.966 8.526 -5.056
24.726 8.548 -5.084
24.476 8.546 -5.055
24.236 8.569 -5.103
23.986 8.582 -5.132
23.756 8.687 -4.432
23.746 8.577 -5.072
23.506 8.629 -5.229
23.256 8.625 -5.179
23.026 8.767 -4.686
23.016 8.622 -5.139
22.776 8.821 -4.862
22.776 8.678 -5.335
22.536 8.819 -4.832
22.526 8.706 -5.433
22.296 8.860 -4.970
22.286 8.729 -5.471
22.046 8.855 -4.910
22.046 8.757 -5.570
21.806 8.911 -5.106
21.796 8.784 -5.658
21.566 8.951 -5.233
21.556 8.792 -5.637
21.316 8.964 -5.272
21.306 8.800 -5.616
21.076 8.974 -5.272
21.066 8.829 -5.724
20.826 8.870 -5.862
20.576 8.878 -5.841
20.336 8.952 -6.136
20.096 8.960 -6.115
19.846 8.986 -6.193
19.606 9.015 -6.302
19.366 9.081 -6.507
19.126 9.110 -6.615
18.876 9.149 -6.732
18.636 9.162 -6.771
18.396 9.188 -6.850
18.156 9.242 -7.016
17.906 9.269 -7.104
17.666 9.323 -7.290
17.426 9.333 -7.290
17.186 9.377 -7.467
16.936 9.416 -7.574
16.696 9.486 -7.829
16.456 9.513 -7.917
16.216 9.569 -8.114
15.976 9.613 -8.301
15.736 9.634 -8.309
15.486 9.630 -8.259
15.246 9.686 -8.456
15.006 9.716 -8.584
14.766 9.768 -8.740
14.526 9.809 -8.867
14.286 9.835 -8.945
14.046 9.906 -9.211
13.796 9.936 -9.339
13.556 9.961 -9.407
13.316 9.984 -9.435
13.076 10.041 -9.651
12.836 10.081 -9.779
12.596 10.108 -9.867
12.356 10.148 -9.994
12.106 10.131 -9.905
11.866 10.153 -9.933
11.626 10.182 -10.042
11.386 10.206 -10.100
11.146 10.218 -10.119
10.906 10.225 -10.078
10.656 10.240 -10.137
10.416 10.281 -10.284
10.176 10.290 -10.274
9.936 10.317 -10.352
9.696 10.338 -10.370
9.456 10.350 -10.399
9.206 10.346 -10.340
8.976 10.420 -10.645
8.736 10.445 -10.713
8.486 10.424 -10.564
8.246 10.449 -10.632
8.006 10.446 -10.593
7.766 10.467 -10.611
7.516 10.451 -10.532
7.276 10.443 -10.432
7.036 10.455 -10.451
6.796 10.512 -10.668
6.556 10.522 -10.667
6.316 10.547 -10.725
6.066 10.573 -10.803
5.826 10.583 -10.802
5.586 10.566 -10.713
5.346 10.590 -10.772
5.096 10.583 -10.682
4.856 10.579 -10.632
4.616 10.575 -10.582
4.376 10.602 -10.661
4.126 10.597 -10.601
3.886 10.623 -10.679
3.646 10.645 -10.697
3.406 10.642 -10.657
3.156 10.621 -10.519
2.916 10.619 -10.499
2.676 10.630 -10.508
2.436 10.653 -10.546
2.186 10.617 -10.348
1.946 10.659 -10.496
1.696 10.625 -10.318
1.456 10.632 -10.287
1.216 10.643 -10.296
0.976 10.641 -10.266
0.726 10.651 -10.265
0.486 10.630 -10.127
0.236 10.596 -9.949
-0.004 10.606 -9.948
-0.244 10.630 -9.996
-0.494 10.594 -9.798
-0.734 10.588 -9.719
-0.984 10.584 -9.669
-1.224 10.564 -9.540
-1.464 10.608 -9.717
-1.714 10.569 -9.479
-1.954 10.580 -9.489
-2.204 10.563 -9.400
-2.444 10.573 -9.399
-2.684 10.583 -9.398
-2.934 10.593 -9.397
-3.174 10.569 -9.229
-3.424 10.565 -9.179
-3.664 10.561 -9.129
-3.914 10.557 -9.069
-4.154 10.550 -8.979
-4.404 10.548 -8.959
-4.644 10.540 -8.860
-4.894 10.523 -8.771
-5.134 10.514 -8.651
-5.384 10.496 -8.552
-5.634 10.477 -8.433
-5.874 10.470 -8.354
-6.124 10.437 -8.186
-6.374 10.432 -8.126
-6.614 10.425 -8.036
-6.864 10.423 -8.006
-8.914 11.279 -11.360
-8.684 11.209 -11.114
-9.134 11.398 -11.862
-13.494 12.746 -17.002
-13.254 12.722 -16.954
-14.394 13.094 -18.369
-14.174 12.977 -17.896
-14.634 13.048 -18.162
-14.874 13.084 -18.239
-15.104 13.158 -18.544
-15.324 13.230 -18.819
-15.564 13.243 -18.859
-15.814 13.384 -18.356
-15.814 13.206 -18.641
-16.054 13.394 -18.355
-16.044 13.244 -18.738
-24.974 11.493 -9.617
-24.734 11.470 -9.589
-25.224 11.456 -9.410
-25.474 11.452 -9.360
-25.714 11.465 -9.399
-25.964 11.441 -9.220
-26.234 11.360 -8.825
-26.494 11.297 -8.539
-26.744 11.273 -8.351
-27.004 11.208 -8.045
-27.254 11.204 -7.985
-27.504 11.183 -7.856
-27.764 11.135 -7.619
-28.024 11.081 -7.323
-28.284 11.043 -7.095
-28.544 10.980 -6.799
-28.794 11.151 -6.424
-28.804 10.926 -6.502
-29.084 11.005 -5.714
-29.084 10.814 -5.969
-29.334 10.778 -5.762
-29.594 10.727 -5.495
-29.854 10.696 -5.357
-31.094 10.858 -4.742
-31.324 10.711 -5.165
-31.084 10.698 -5.126
-31.564 10.734 -5.203
-31.814 10.730 -5.153
-32.054 10.740 -5.153
-36.534 9.281 3.058
-36.804 9.201 3.443
-36.774 9.088 2.842
-36.524 9.095 2.753
-39.174 7.846 8.683
-38.924 7.851 8.613
32.176 15.454 -36.499
31.926 15.360 -37.089
32.166 15.318 -36.941
31.696 15.418 -37.315
31.456 15.486 -37.550
31.216 15.543 -37.756
30.986 15.615 -38.042
30.746 15.625 -38.031
30.516 15.636 -38.050
30.276 15.692 -38.246
30.046 15.701 -38.235
29.816 15.592 -37.742
29.586 15.524 -37.387
29.346 15.521 -37.347
29.116 15.548 -37.445
28.876 15.574 -37.513
28.646 15.552 -37.364
28.416 15.551 -37.344
28.176 15.558 -37.314
27.946 15.616 -37.540
27.706 15.749 -38.081
27.476 15.697 -37.804
27.236 15.631 -37.479
27.006 15.611 -37.350
26.786 15.697 -36.651
26.776 15.531 -36.965
26.546 15.628 -36.295
26.536 15.481 -36.718
25.686 8.379 -5.609
25.926 8.386 -5.699
25.446 8.361 -5.520
25.196 8.356 -5.451
24.956 8.392 -5.528
24.716 8.373 -5.409
24.466 8.384 -5.428
24.226 8.379 -5.359
23.986 8.392 -5.398
23.736 8.429 -5.485
23.496 8.473 -5.662
23.246 8.454 -5.543
23.006 8.480 -5.621
22.766 8.517 -5.709
22.516 8.547 -5.837
22.276 8.571 -5.885
22.036 8.579 -5.864
21.786 8.604 -5.923
21.546 8.617 -5.962
21.306 8.657 -6.089
21.056 8.699 -6.236
20.816 8.723 -6.284
20.576 8.750 -6.383
20.326 8.790 -6.510
20.086 8.818 -6.608
19.846 8.842 -6.656
19.596 8.867 -6.714
19.356 8.922 -6.901
19.116 8.934 -6.930
18.876 8.974 -7.057
18.626 9.016 -7.204
18.386 9.040 -7.263
18.146 9.070 -7.381
17.906 9.107 -7.468
17.656 9.165 -7.694
17.416 9.188 -7.732
17.176 9.233 -7.929
16.936 9.271 -8.027
16.686 9.284 -8.066
16.446 9.341 -8.282
16.206 9.379 -8.379
15.966 9.405 -8.458
15.726 9.448 -8.615
15.486 9.502 -8.791
15.246 9.529 -8.879
14.996 9.553 -8.937
14.756 9.579 -9.016
14.516 9.620 -9.153
14.276 9.648 -9.251
14.036 9.701 -9.417
13.796 9.743 -9.564
13.556 9.798 -9.751
13.306 9.808 -9.750
13.066 9.849 -9.897
12.826 9.844 -9.827
12.586 9.903 -10.064
12.346 9.944 -10.211
12.106 9.998 -10.377
11.866 10.012 -10.436
11.626 10.034 -10.454
11.386 10.048 -10.513
11.136 10.072 -10.552
10.896 10.085 -10.591
10.656 10.108 -10.639
10.416 10.088 -10.510
10.176 10.115 -10.598
9.936 10.138 -10.637
9.686 10.149 -10.646
9.446 10.158 -10.635
9.206 10.186 -10.733
8.966 10.184 -10.703
8.716 10.179 -10.644
8.476 10.218 -10.751
8.236 10.241 -10.789
7.996 10.268 -10.887
7.756 10.265 -10.838
7.516 10.304 -10.955
7.276 10.328 -11.013
7.036 10.326 -10.983
6.796 10.354 -11.081
6.546 10.361 -11.041
6.306 10.359 -11.021
6.066 10.380 -11.029
5.826 10.379 -11.019
5.586 10.404 -11.077
5.336 10.385 -10.968
5.096 10.424 -11.086
4.856 10.432 -11.055
4.616 10.446 -11.104
4.376 10.468 -11.132
4.126 10.453 -11.063
3.886 10.474 -11.082
3.646 10.470 -11.032
3.396 10.451 -10.913
3.156 10.434 -10.824
2.916 10.442 -10.803
2.666 10.452 -10.793
2.426 10.448 -10.743
2.186 10.443 -10.683
1.946 10.451 -10.662
1.696 10.447 -10.612
1.456 10.440 -10.523
1.216 10.451 -10.532
0.966 10.431 -10.403
0.726 10.441 -10.402
0.476 10.439 -10.372
0.236 10.463 -10.431
-0.004 10.460 -10.391
-0.244 10.484 -10.439
-0.484 10.467 -10.350
-0.734 10.474 -10.309
-0.974 10.441 -10.152
-1.224 10.466 -10.210
-1.464 10.430 -10.012
-1.714 10.409 -9.873
-1.954 10.420 -9.882
-2.204 10.401 -9.773
-2.444 10.425 -9.822
-2.684 10.422 -9.782
-2.934 10.418 -9.732
-3.174 10.410 -9.622
-3.424 10.406 -9.582
-3.664 10.414 -9.552
-3.914 10.365 -9.305
-4.164 10.345 -9.186
-4.404 10.357 -9.205
-4.644 10.367 -9.204
-4.894 10.347 -9.086
-5.134 10.355 -9.055
-5.384 10.324 -8.917
-5.634 10.315 -8.797
-5.874 10.310 -8.737
-6.124 10.278 -8.590
-6.364 10.272 -8.510
-6.614 10.253 -8.391
-6.864 10.248 -8.331
-7.534 10.775 -9.423
-7.764 10.847 -9.698
-7.754 10.732 -10.279
-7.524 10.675 -10.063
-8.004 10.916 -9.934
-7.984 10.817 -10.593
-9.824 11.631 -12.776
-10.044 11.775 -13.337
-10.034 11.620 -13.780
-9.804 11.529 -13.396
-14.864 12.954 -18.761
-14.624 12.915 -18.644
-15.084 13.046 -19.155
-15.314 13.083 -19.242
-15.544 13.143 -19.498
-15.784 13.136 -19.409
-16.034 13.117 -19.300
-24.994 11.225 -9.528
-24.734 11.248 -9.697
-25.244 11.190 -9.340
-25.494 11.172 -9.241
-25.734 11.181 -9.231
-26.004 11.112 -8.865
-26.254 11.062 -8.608
-26.504 11.043 -8.499
-26.754 11.023 -8.360
-27.014 10.972 -8.104
-27.264 10.951 -7.965
-27.524 10.903 -7.728
-27.774 10.882 -7.599
-28.024 10.875 -7.509
-28.294 10.776 -7.016
-28.554 10.728 -6.779
-28.814 10.678 -6.532
-29.084 10.596 -6.127
-29.344 10.545 -5.860
-29.594 10.552 -5.829
-29.834 10.564 -5.849
-30.824 10.737 -5.364
-31.074 10.510 -5.412
-30.814 10.560 -5.668
-31.314 10.550 -5.549
-31.544 10.590 -5.666
32.646 15.117 -36.165
32.406 15.232 -36.607
32.396 15.069 -36.961
32.626 14.996 -36.676
32.156 15.152 -37.245
31.916 15.225 -37.541
31.676 15.280 -37.737
31.446 15.336 -37.933
31.206 15.365 -38.041
30.976 15.390 -38.109
30.736 15.398 -38.089
30.506 15.412 -38.128
30.276 15.223 -37.260
30.046 15.186 -37.042
29.816 15.185 -37.032
29.576 15.257 -37.307
29.336 15.297 -37.435
29.106 15.306 -37.424
28.876 15.287 -37.315
28.636 15.341 -37.491
28.406 15.367 -37.560
28.166 15.303 -37.264
27.936 15.331 -37.362
27.696 15.400 -37.597
27.466 15.459 -37.833
27.226 15.450 -37.724
26.996 15.416 -37.546
26.766 15.381 -37.358
26.526 15.302 -36.993
26.306 15.432 -36.471
26.296 15.278 -36.814
26.076 15.350 -36.066
26.066 15.232 -36.617
25.436 8.186 -5.845
25.676 8.190 -5.885
25.186 8.192 -5.795
24.946 8.206 -5.834
24.706 8.216 -5.833
24.456 8.223 -5.802
24.216 8.249 -5.880
23.976 8.245 -5.830
23.726 8.257 -5.850
23.486 8.310 -6.016
23.246 8.339 -6.124
22.996 8.346 -6.093
22.756 8.360 -6.142
22.506 8.385 -6.201
22.266 8.410 -6.259
22.026 8.438 -6.367
21.776 8.476 -6.464
21.536 8.474 -6.444
21.296 8.514 -6.562
21.046 8.526 -6.591
20.806 8.550 -6.639
20.566 8.561 -6.658
20.326 8.614 -6.815
20.076 8.654 -6.942
19.836 8.669 -7.001
19.596 8.691 -7.029
19.346 8.731 -7.156
19.106 8.760 -7.265
18.866 8.799 -7.382
18.626 8.843 -7.559
18.376 8.881 -7.666
18.136 8.905 -7.715
17.896 8.948 -7.872
17.656 8.989 -8.009
17.406 9.030 -8.146
17.166 9.072 -8.303
16.926 9.094 -8.332
16.686 9.122 -8.430
16.446 9.181 -8.666
16.206 9.221 -8.793
15.956 9.275 -8.969
15.716 9.303 -9.077
15.476 9.327 -9.116
15.236 9.367 -9.243
14.996 9.392 -9.311
14.756 9.433 -9.448
14.516 9.489 -9.645
14.266 9.502 -9.694
14.026 9.544 -9.841
13.786 9.582 -9.938
13.546 9.596 -9.987
13.306 9.635 -10.105
13.066 9.662 -10.193
12.826 9.732 -10.448
12.586 9.757 -10.506
12.346 9.782 -10.575
12.106 9.823 -10.712
11.856 9.848 -10.770
11.616 9.844 -10.720
11.376 9.870 -10.798
11.136 9.882 -10.817
10.896 9.906 -10.876
10.656 9.919 -10.905
10.416 9.956 -11.002
10.166 9.926 -10.864
9.926 9.949 -10.912
9.686 9.962 -10.942
9.446 9.982 -10.950
9.206 10.024 -11.097
8.956 10.035 -11.106
8.716 10.060 -11.165
8.476 10.073 -11.204
8.236 10.097 -11.252
7.996 10.094 -11.222
7.756 10.105 -11.231
7.516 10.128 -11.270
7.266 10.126 -11.250
7.026 10.164 -11.347
6.786 10.163 -11.327
6.546 10.188 -11.395
6.306 10.197 -11.384
6.066 10.236 -11.492
5.826 10.233 -11.462
5.576 10.240 -11.421
5.336 10.238 -11.391
5.096 10.247 -11.381
4.856 10.246 -11.371
4.616 10.272 -11.439
4.366 10.281 -11.428
4.126 10.244 -11.220
3.886 10.271 -11.308
3.646 10.283 -11.328
3.396 10.291 -11.307
3.156 10.288 -11.267
2.916 10.297 -11.246
2.666 10.291 -11.176
2.436 10.320 -11.285
2.186 10.328 -11.264
1.946 10.325 -11.224
1.696 10.303 -11.075
1.456 10.298 -11.005
1.216 10.280 -10.907
0.966 10.288 -10.886
0.726 10.270 -10.777
0.476 10.278 -10.756
0.236 10.303 -10.814
-0.004 10.270 -10.647
-0.254 10.248 -10.498
-0.494 10.231 -10.409
-0.744 10.238 -10.368
-0.984 10.235 -10.338
-1.234 10.228 -10.249
-1.474 10.241 -10.288
-1.714 10.219 -10.129
-1.964 10.228 -10.118
-2.204 10.241 -10.157
-2.454 10.206 -9.969
-2.694 10.215 -9.959
-2.934 10.224 -9.938
-3.184 10.206 -9.839
-3.424 10.187 -9.730
-3.664 10.241 -9.896
-3.914 10.220 -9.768
-4.154 10.187 -9.600
-4.404 10.180 -9.510
-4.644 10.176 -9.460
-4.894 10.156 -9.331
-5.144 10.135 -9.193
-5.384 10.117 -9.094
-5.634 10.109 -8.984
-5.874 10.120 -9.003
-6.124 10.113 -8.913
-6.374 10.081 -8.756
-6.614 10.091 -8.765
-25.004 10.974 -9.528
-24.754 10.994 -9.657
-25.254 10.968 -9.448
-25.504 10.920 -9.221
-25.764 10.865 -8.914
-26.014 10.845 -8.786
-26.264 10.840 -8.716
-26.514 10.807 -8.558
-26.774 10.769 -8.330
-27.034 10.720 -8.083
-27.274 10.703 -7.994
-27.524 10.693 -7.875
-27.784 10.672 -7.736
-28.054 10.577 -7.292
-28.304 10.556 -7.143
-28.564 10.508 -6.926
-28.814 10.471 -6.709
-29.084 10.391 -6.324
-29.334 10.368 -6.165
-29.584 10.378 -6.164
-29.814 10.406 -6.262
-30.304 10.629 -6.034
-30.554 10.624 -5.974
-30.554 10.408 -6.162
-30.304 10.411 -6.202
-30.824 10.339 -5.796
-31.074 10.304 -5.608
-31.314 10.358 -5.785
-31.544 10.385 -5.863
-32.314 10.498 -5.142
-32.554 10.512 -5.191
-32.524 10.396 -5.752
-32.274 10.403 -5.841
-32.794 10.534 -5.209
-32.784 10.363 -5.594
-33.054 10.483 -4.942
-33.034 10.342 -5.455
-38.004 8.159 5.969
-38.264 8.120 6.217
-38.244 7.977 5.734
-37.994 7.984 5.644
32.866 14.940 -36.470
32.616 14.860 -37.108
32.856 14.792 -36.883
32.376 14.889 -37.226
32.146 14.957 -37.451
31.906 15.032 -37.766
31.666 15.099 -37.982
31.436 15.068 -37.844
31.206 15.059 -37.724
30.976 14.951 -37.241
30.736 14.974 -37.290
30.506 14.987 -37.319
30.266 14.998 -37.328
30.036 15.007 -37.317
29.796 15.031 -37.375
29.566 15.061 -37.503
29.326 15.103 -37.651
29.096 15.079 -37.472
28.866 15.074 -37.412
28.626 15.103 -37.520
28.396 15.187 -37.824
28.156 15.124 -37.539
27.926 15.059 -37.213
27.696 15.037 -37.064
27.456 15.110 -37.349
27.226 15.226 -37.811
26.986 15.174 -37.525
26.756 15.155 -37.416
26.516 15.152 -37.376
26.286 15.115 -37.168
26.056 15.094 -37.029
25.426 8.011 -6.170
25.666 8.027 -6.239
25.176 8.017 -6.109
24.936 8.013 -6.059
24.696 8.026 -6.099
24.446 8.033 -6.058
24.206 8.060 -6.156
23.966 8.070 -6.145
23.716 8.084 -6.194
23.476 8.135 -6.341
23.236 8.147 -6.370
22.986 8.159 -6.389
22.746 8.183 -6.437
22.506 8.210 -6.525
22.256 8.252 -6.673
22.016 8.274 -6.701
21.776 8.303 -6.819
21.526 8.329 -6.887
21.286 8.366 -6.985
21.046 8.364 -6.955
20.796 8.392 -7.053
20.556 8.415 -7.091
20.316 8.457 -7.238
20.066 8.480 -7.277
19.826 8.506 -7.355
19.586 8.533 -7.443
19.346 8.559 -7.521
19.096 8.598 -7.638
18.856 8.627 -7.746
18.616 8.679 -7.893
18.376 8.709 -8.021
18.126 8.750 -8.158
17.886 8.818 -8.383
17.646 8.831 -8.423
17.406 8.868 -8.510
17.166 8.913 -8.707
16.916 8.935 -8.725
16.676 8.977 -8.882
16.436 9.019 -9.030
16.196 9.045 -9.108
15.956 9.084 -9.225
15.716 9.124 -9.342
15.466 9.152 -9.450
15.226 9.192 -9.568
14.986 9.218 -9.646
14.746 9.259 -9.783
14.506 9.286 -9.871
14.266 9.313 -9.959
14.026 9.381 -10.195
13.786 9.423 -10.342
13.546 9.447 -10.390
13.296 9.488 -10.527
13.056 9.513 -10.596
12.816 9.527 -10.645
12.576 9.564 -10.732
12.336 9.610 -10.939
12.096 9.634 -10.987
11.856 9.658 -11.036
11.616 9.654 -10.986
11.376 9.698 -11.153
11.126 9.707 -11.152
10.886 9.733 -11.220
10.646 9.757 -11.269
10.406 9.768 -11.288
10.166 9.764 -11.228
9.926 9.805 -11.365
9.686 9.816 -11.384
9.436 9.840 -11.433
9.196 9.865 -11.491
8.956 9.875 -11.490
8.716 9.885 -11.499
8.476 9.912 -11.587
8.236 9.935 -11.626
7.996 9.920 -11.557
7.746 9.942 -11.585
7.506 9.955 -11.614
7.266 9.978 -11.653
7.026 9.990 -11.682
6.786 9.985 -11.622
6.536 9.978 -11.532
6.296 10.007 -11.650
6.056 10.001 -11.570
5.816 10.024 -11.609
5.576 10.020 -11.559
5.336 10.060 -11.686
5.086 10.044 -11.607
4.846 10.067 -11.645
4.606 10.076 -11.625
4.366 10.088 -11.654
4.126 10.086 -11.634
3.876 10.095 -11.613
3.636 10.107 -11.642
3.396 10.114 -11.602
3.156 10.112 -11.572
2.916 10.121 -11.561
2.666 10.118 -11.531
2.426 10.112 -11.451
2.186 10.121 -11.441
1.946 10.146 -11.499
1.696 10.128 -11.400
1.456 10.108 -11.271
1.206 10.100 -11.171
0.966 10.113 -11.201
0.726 10.105 -11.101
0.476 10.089 -11.032
0.236 10.081 -10.932
-0.014 10.060 -10.793
-0.254 10.086 -10.862
-0.494 10.070 -10.793
-0.744 10.062 -10.683
-0.984 10.090 -10.781
-1.224 10.070 -10.662
-1.464 10.093 -10.701
-1.714 10.060 -10.533
-1.954 10.071 -10.542
-2.204 10.079 -10.521
-2.444 10.046 -10.353
-2.694 10.056 -10.352
-2.934 10.064 -10.332
-3.184 10.029 -10.144
-3.424 10.027 -10.114
-3.664 10.032 -10.053
-3.914 10.028 -9.993
-4.154 10.026 -9.974
-4.404 10.006 -9.845
-4.644 10.000 -9.775
-4.894 9.993 -9.685
-5.134 9.975 -9.586
-5.384 9.972 -9.546
-5.634 9.950 -9.388
-5.874 9.947 -9.348
-6.124 9.910 -9.140
-6.364 9.907 -9.100
-6.614 9.916 -9.079
-6.834 10.225 -9.316
-6.834 10.062 -9.670
-25.014 10.740 -9.616
-24.754 10.774 -9.794
-25.264 10.718 -9.458
-25.514 10.684 -9.280
-25.774 10.646 -9.052
-26.024 10.628 -8.953
-26.274 10.606 -8.804
-26.524 10.586 -8.676
-26.784 10.533 -8.389
-27.044 10.482 -8.122
-27.284 10.478 -8.072
-27.544 10.441 -7.854
-27.784 10.438 -7.815
-28.054 10.370 -7.459
-28.314 10.321 -7.222
-28.574 10.268 -6.925
-28.824 10.221 -6.718
-29.084 10.185 -6.510
-29.324 10.196 -6.530
-29.564 10.220 -6.578
-29.814 10.217 -6.538
-30.054 10.431 -6.331
-30.054 10.225 -6.507
-30.304 10.221 -6.457
-30.554 10.198 -6.299
-30.824 10.133 -5.983
-31.074 10.113 -5.854
-31.314 10.142 -5.962
-31.544 10.198 -6.168
-31.794 10.381 -5.823
-31.784 10.192 -6.089
-32.044 10.360 -5.684
-32.034 10.203 -6.108
-32.274 10.226 -6.146
-32.534 10.177 -5.899
-32.794 10.139 -5.671
-38.224 7.808 5.340
-37.974 7.839 5.192
33.326 14.648 -36.322
33.096 14.719 -36.597
33.076 14.525 -36.803
33.316 14.512 -36.764
32.846 14.626 -37.197
32.606 14.713 -37.541
32.366 14.781 -37.766
32.126 14.810 -37.874
31.896 14.834 -37.923
31.666 14.817 -37.834
31.436 14.735 -37.429
31.196 14.745 -37.438
30.966 14.741 -37.378
30.726 14.748 -37.347
30.496 14.789 -37.485
30.256 14.849 -37.731
30.026 14.829 -37.612
29.786 14.852 -37.640
29.556 14.878 -37.718
29.326 14.845 -37.551
29.086 14.841 -37.511
28.856 14.864 -37.539
28.616 14.905 -37.676
28.386 14.919 -37.735
28.146 14.895 -37.557
27.916 14.847 -37.330
27.686 14.781 -36.994
27.456 14.790 -36.983
27.216 14.908 -37.465
26.976 14.968 -37.711
26.746 14.974 -37.671
26.506 14.956 -37.562
26.276 14.923 -37.404
26.046 14.914 -37.284
25.816 15.075 -36.910
25.806 14.878 -37.086
25.176 7.828 -6.385
25.416 7.834 -6.465
24.926 7.808 -6.266
24.686 7.818 -6.265
24.436 7.844 -6.344
24.196 7.872 -6.442
23.956 7.868 -6.382
23.706 7.890 -6.410
23.466 7.918 -6.508
23.226 7.941 -6.547
22.976 7.999 -6.773
22.736 8.022 -6.811
22.496 8.036 -6.870
22.246 8.031 -6.800
22.006 8.101 -7.056
21.766 8.144 -7.213
21.516 8.151 -7.182
21.276 8.181 -7.300
21.036 8.217 -7.378
20.796 8.230 -7.417
20.546 8.272 -7.564
20.306 8.298 -7.642
20.066 8.323 -7.710
19.816 8.377 -7.886
19.576 8.401 -7.935
19.336 8.414 -7.974
19.096 8.467 -8.140
18.846 8.494 -8.228
18.606 8.551 -8.445
18.366 8.561 -8.434
18.126 8.585 -8.492
17.886 8.656 -8.757
17.636 8.668 -8.776
17.396 8.709 -8.914
17.156 8.754 -9.101
16.916 8.791 -9.198
16.676 8.804 -9.237
16.426 8.831 -9.315
16.186 8.898 -9.531
15.946 8.912 -9.580
15.706 8.950 -9.687
15.466 9.006 -9.883
15.226 9.034 -9.991
14.986 9.056 -10.010
14.736 9.071 -10.079
14.496 9.139 -10.304
14.256 9.166 -10.392
14.016 9.221 -10.579
13.776 9.263 -10.726
13.536 9.260 -10.686
13.296 9.284 -10.744
13.056 9.341 -10.960
12.816 9.409 -11.186
12.576 9.408 -11.176
12.336 9.446 -11.273
12.086 9.458 -11.292
11.846 9.455 -11.262
11.606 9.492 -11.350
11.366 9.505 -11.379
11.126 9.529 -11.427
10.886 9.569 -11.564
10.646 9.597 -11.662
10.396 9.589 -11.563
10.156 9.615 -11.631
9.916 9.643 -11.729
9.676 9.653 -11.738
9.436 9.649 -11.678
9.196 9.674 -11.747
8.956 9.701 -11.835
8.706 9.696 -11.765
8.466 9.704 -11.744
8.226 9.732 -11.842
7.986 9.770 -11.950
7.746 9.769 -11.930
7.506 9.793 -11.978
7.266 9.772 -11.849
7.016 9.785 -11.878
6.776 9.822 -11.976
6.536 9.835 -12.005
6.296 9.817 -11.906
6.056 9.883 -12.111
5.816 9.883 -12.101
5.576 9.876 -12.022
5.336 9.903 -12.110
5.086 9.912 -12.099
4.846 9.908 -12.039
4.606 9.874 -11.861
4.356 9.897 -11.900
4.116 9.894 -11.870
3.876 9.917 -11.908
3.636 9.927 -11.897
3.386 9.908 -11.788
3.146 9.920 -11.808
2.906 9.946 -11.886
2.666 9.939 -11.796
2.426 9.934 -11.736
2.176 9.943 -11.725
1.936 9.924 -11.607
1.696 9.938 -11.656
1.446 9.931 -11.576
1.206 9.956 -11.634
0.966 9.935 -11.495
0.716 9.915 -11.367
0.476 9.909 -11.297
0.226 9.892 -11.198
-0.014 9.885 -11.118
-0.254 9.884 -11.098
-0.494 9.937 -11.265
-0.744 9.915 -11.116
-0.994 9.869 -10.909
-1.234 9.891 -10.937
-1.474 9.874 -10.848
-1.714 9.881 -10.808
-1.964 9.892 -10.817
-2.204 9.889 -10.787
-2.444 9.897 -10.756
-2.694 9.865 -10.598
-2.934 9.873 -10.577
-3.174 9.871 -10.557
-3.424 9.877 -10.507
-3.664 9.874 -10.467
-3.914 9.857 -10.378
-4.154 9.837 -10.249
-4.404 9.843 -10.199
-4.654 9.797 -9.992
-4.894 9.807 -10.001
-5.144 9.785 -9.842
-5.384 9.777 -9.742
-5.624 9.792 -9.801
-5.874 9.772 -9.683
-6.124 9.734 -9.445
-6.364 9.759 -9.513
-6.604 9.757 -9.493
-7.054 10.215 -10.330
-7.034 10.114 -10.960
-6.814 10.011 -10.547
-9.344 11.066 -13.623
-9.574 11.122 -13.829
-9.564 11.009 -14.430
-9.324 10.952 -14.214
-9.794 11.225 -14.253
-9.794 11.066 -14.646
-25.274 10.482 -9.526
-25.004 10.549 -9.862
-25.524 10.445 -9.309
-25.774 10.440 -9.249
-26.024 10.419 -9.100
-26.274 10.401 -9.001
-26.534 10.351 -8.754
-26.784 10.312 -8.507
-27.044 10.263 -8.270
-27.294 10.260 -8.230
-27.534 10.255 -8.170
-27.794 10.220 -7.982
-28.064 10.136 -7.547
-28.324 10.085 -7.281
-28.574 10.049 -7.083
-28.824 10.029 -6.954
-29.074 10.022 -6.864
-29.324 10.019 -6.824
-29.564 10.016 -6.785
-29.804 10.054 -6.892
-30.044 10.053 -6.872
-30.304 10.029 -6.693
-30.564 9.980 -6.456
-30.814 9.946 -6.278
-31.074 9.922 -6.100
-31.314 9.921 -6.090
-31.544 9.976 -6.276
-31.784 9.987 -6.285
-32.034 9.980 -6.206
-32.284 9.976 -6.156
-32.554 9.910 -5.820
-32.794 9.920 -5.819
-38.214 7.633 5.015
-37.964 7.655 4.856
33.796 14.309 -35.978
33.556 14.367 -36.194
33.546 14.216 -36.577
33.786 14.158 -36.351
33.306 14.273 -36.783
33.066 14.360 -37.127
32.836 14.429 -37.373
32.596 14.503 -37.678
32.356 14.510 -37.637
32.126 14.597 -37.971
31.896 14.519 -37.626
31.656 14.454 -37.300
31.426 14.479 -37.369
31.186 14.548 -37.604
30.956 14.517 -37.466
30.726 14.524 -37.435
30.486 14.473 -37.168
30.246 14.605 -37.700
30.016 14.661 -37.896
29.786 14.615 -37.699
29.546 14.639 -37.737
29.316 14.648 -37.726
29.076 14.631 -37.638
28.846 14.627 -37.588
28.606 14.651 -37.646
28.376 14.678 -37.724
28.146 14.611 -37.388
27.906 14.548 -37.092
27.676 14.633 -37.407
27.446 14.610 -37.248
27.206 14.685 -37.563
26.966 14.769 -37.867
26.736 14.751 -37.759
26.506 14.789 -37.866
26.266 14.741 -37.639
26.036 14.706 -37.441
25.796 14.668 -37.223
24.916 7.633 -6.591
25.166 7.626 -6.622
24.676 7.645 -6.610
24.436 7.669 -6.658
24.186 7.679 -6.658
23.946 7.690 -6.677
23.706 7.702 -6.706
23.456 7.756 -6.872
23.216 7.780 -6.930
22.966 7.807 -7.019
22.726 7.818 -7.028
22.486 7.844 -7.106
22.246 7.871 -7.184
21.996 7.910 -7.301
21.756 7.952 -7.449
21.516 7.977 -7.517
21.266 8.006 -7.625
21.026 8.027 -7.643
20.786 8.052 -7.701
20.536 8.094 -7.859
20.296 8.120 -7.927
20.056 8.131 -7.946
19.816 8.187 -8.142
19.566 8.213 -8.220
19.326 8.237 -8.269
19.086 8.294 -8.485
18.846 8.349 -8.681
18.596 8.363 -8.720
18.356 8.388 -8.788
18.116 8.441 -8.955
17.876 8.496 -9.141
17.636 8.508 -9.170
17.386 8.535 -9.248
17.146 8.592 -9.465
16.906 8.647 -9.661
16.666 8.671 -9.709
16.426 8.698 -9.797
16.186 8.721 -9.836
15.946 8.764 -9.993
15.696 8.791 -10.091
15.456 8.831 -10.208
15.216 8.843 -10.237
14.976 8.898 -10.423
14.736 8.938 -10.551
14.496 8.979 -10.688
14.256 9.005 -10.766
14.016 9.029 -10.814
13.766 9.070 -10.952
13.526 9.099 -11.070
13.286 9.125 -11.148
13.046 9.148 -11.176
12.806 9.188 -11.303
12.566 9.199 -11.313
12.326 9.243 -11.500
12.086 9.280 -11.587
11.846 9.294 -11.636
11.606 9.334 -11.753
11.366 9.344 -11.763
11.116 9.336 -11.663
10.876 9.363 -11.741
10.636 9.361 -11.721
10.396 9.383 -11.739
10.156 9.381 -11.720
9.906 9.408 -11.808
9.666 9.432 -11.856
9.426 9.444 -11.885
9.186 9.470 -11.953
8.946 9.493 -11.992
8.706 9.504 -12.011
8.466 9.514 -12.010
8.226 9.540 -12.078
7.986 9.580 -12.205
7.746 9.591 -12.225
7.506 9.618 -12.313
7.256 9.614 -12.263
7.016 9.621 -12.222
6.776 9.650 -12.330
6.536 9.661 -12.349
6.296 9.653 -12.250
6.046 9.647 -12.170
5.806 9.675 -12.268
5.566 9.669 -12.188
5.326 9.682 -12.228
5.086 9.690 -12.207
4.846 9.703 -12.246
4.596 9.728 -12.304
4.356 9.738 -12.303
4.116 9.732 -12.224
3.876 9.756 -12.282
3.636 9.752 -12.222
3.386 9.732 -12.103
3.146 9.743 -12.112
2.906 9.737 -12.033
2.666 9.751 -12.082
2.416 9.757 -12.041
2.176 9.726 -11.903
1.936 9.750 -11.951
1.696 9.774 -12.000
1.446 9.727 -11.783
1.206 9.748 -11.791
0.966 9.759 -11.810
0.716 9.756 -11.770
0.476 9.737 -11.651
0.226 9.730 -11.572
-0.014 9.728 -11.542
-0.254 9.734 -11.491
-0.504 9.715 -11.372
-0.744 9.711 -11.322
-0.994 9.706 -11.263
-1.234 9.704 -11.233
-1.474 9.715 -11.242
-1.724 9.705 -11.122
-1.964 9.690 -11.053
-2.204 9.698 -11.033
-2.444 9.710 -11.052
-2.684 9.735 -11.120
-2.934 9.715 -10.991
-3.184 9.695 -10.872
-3.424 9.719 -10.911
-3.674 9.671 -10.684
-3.914 9.694 -10.722
-4.154 9.703 -10.711
-4.404 9.670 -10.553
-4.644 9.667 -10.513
-4.894 9.661 -10.434
-5.134 9.638 -10.265
-5.384 9.618 -10.146
-5.624 9.617 -10.126
-5.874 9.610 -10.046
-6.114 9.591 -9.928
-6.364 9.615 -9.976
-6.604 9.613 -9.946
-7.034 9.985 -11.491
-6.814 9.819 -10.782
-7.284 10.136 -10.988
-7.264 10.054 -11.727
-7.504 10.228 -11.392
-7.494 10.111 -11.943
-25.534 10.226 -9.456
-25.284 10.246 -9.585
-25.774 10.217 -9.347
-26.024 10.200 -9.248
-26.274 10.181 -9.139
-26.544 10.114 -8.803
-26.784 10.107 -8.703
-27.034 10.087 -8.584
-27.284 10.067 -8.456
-27.544 10.031 -8.258
-27.804 9.966 -7.932
-28.054 9.948 -7.833
-28.324 9.880 -7.487
-28.584 9.827 -7.191
-28.834 9.808 -7.072
-29.074 9.805 -7.032
-29.314 9.831 -7.110
-29.554 9.841 -7.119
-29.804 9.850 -7.099
-30.054 9.830 -6.970
-30.304 9.826 -6.920
-30.564 9.787 -6.682
-30.814 9.738 -6.445
-31.074 9.690 -6.208
-31.324 9.685 -6.149
-31.574 9.678 -6.059
-31.804 9.733 -6.245
-32.044 9.743 -6.244
-32.294 9.741 -6.224
-32.554 9.704 -6.007
-32.804 9.669 -5.819
-38.194 7.492 4.512
-37.934 7.526 4.324
-39.544 7.392 6.290
-39.284 7.415 6.121
-39.534 7.206 5.974
-39.264 7.274 5.619
-39.834 7.294 6.764
-39.814 7.124 6.379
34.016 14.103 -36.164
33.766 13.981 -36.645
34.006 13.895 -36.321
33.536 14.035 -36.822
33.296 14.094 -37.058
33.056 14.149 -37.254
32.816 14.234 -37.568
32.586 14.293 -37.805
32.356 14.256 -37.587
32.116 14.268 -37.616
31.886 14.260 -37.516
31.656 14.224 -37.318
31.416 14.206 -37.210
31.186 14.220 -37.259
30.946 14.274 -37.445
30.716 14.209 -37.129
30.486 14.202 -37.039
30.246 14.243 -37.167
30.006 14.347 -37.600
29.776 14.417 -37.855
29.536 14.412 -37.785
29.306 14.395 -37.696
29.066 14.433 -37.804
28.836 14.400 -37.636
28.606 14.305 -37.192
28.366 14.327 -37.220
28.136 14.386 -37.466
27.896 14.397 -37.475
27.666 14.361 -37.268
27.436 14.312 -37.031
27.196 14.350 -37.128
26.966 14.407 -37.344
26.726 14.555 -37.954
26.496 14.553 -37.925
26.256 14.544 -37.805
26.026 14.482 -37.539
25.796 14.460 -37.380
25.566 14.572 -36.769
25.556 14.380 -36.995
24.906 7.415 -6.748
25.156 7.416 -6.768
24.666 7.439 -6.797
24.426 7.466 -6.885
24.176 7.489 -6.923
23.936 7.501 -6.952
23.696 7.525 -7.001
23.446 7.552 -7.089
23.206 7.576 -7.137
22.966 7.601 -7.195
22.716 7.642 -7.342
22.476 7.669 -7.431
22.236 7.696 -7.519
21.986 7.738 -7.666
21.746 7.759 -7.674
21.506 7.771 -7.703
21.256 7.843 -7.979
21.016 7.854 -7.998
20.776 7.878 -8.046
20.536 7.917 -8.163
20.286 7.929 -8.183
20.046 7.984 -8.369
19.806 8.009 -8.437
19.566 8.070 -8.693
19.316 8.079 -8.692
19.076 8.120 -8.830
18.836 8.160 -8.947
18.596 8.201 -9.094
18.356 8.240 -9.201
18.106 8.265 -9.260
17.866 8.326 -9.526
17.626 8.365 -9.643
17.386 8.373 -9.622
17.146 8.429 -9.818
16.896 8.442 -9.857
16.656 8.451 -9.847
16.416 8.522 -10.112
16.176 8.578 -10.308
15.936 8.604 -10.386
15.696 8.616 -10.416
15.456 8.687 -10.671
15.216 8.711 -10.729
14.966 8.724 -10.758
14.726 8.778 -10.944
14.486 8.771 -10.855
14.246 8.800 -10.963
14.006 8.854 -11.139
13.766 8.897 -11.306
13.526 8.923 -11.384
13.286 8.961 -11.482
13.046 8.974 -11.521
12.806 9.014 -11.648
12.556 9.053 -11.755
12.316 9.078 -11.824
12.076 9.108 -11.942
11.836 9.134 -12.020
11.596 9.157 -12.058
11.356 9.182 -12.116
11.116 9.178 -12.077
10.876 9.203 -12.135
10.636 9.228 -12.193
10.396 9.242 -12.242
10.146 9.249 -12.211
9.906 9.261 -12.231
9.666 9.285 -12.279
9.426 9.283 -12.259
9.186 9.308 -12.327
8.946 9.315 -12.286
8.696 9.330 -12.345
8.466 9.370 -12.473
8.216 9.381 -12.482
7.976 9.361 -12.363
7.736 9.385 -12.411
7.496 9.398 -12.440
7.246 9.392 -12.371
7.016 9.445 -12.537
6.776 9.487 -12.684
6.536 9.497 -12.683
6.286 9.491 -12.614
6.046 9.474 -12.515
5.806 9.483 -12.504
5.566 9.511 -12.602
5.326 9.533 -12.630
5.076 9.515 -12.532
4.836 9.553 -12.629
4.596 9.538 -12.570
4.356 9.530 -12.470
4.116 9.554 -12.518
3.866 9.553 -12.508
3.626 9.577 -12.547
3.386 9.559 -12.448
3.146 9.581 -12.476
2.906 9.593 -12.505
2.656 9.573 -12.376
2.416 9.585 -12.406
2.176 9.594 -12.385
1.936 9.592 -12.355
1.686 9.585 -12.275
1.446 9.581 -12.225
1.206 9.576 -12.156
0.956 9.538 -11.928
0.716 9.552 -11.977
0.476 9.559 -11.936
0.226 9.572 -11.985
-0.014 9.565 -11.886
-0.254 9.560 -11.826
-0.504 9.555 -11.766
-0.744 9.538 -11.677
-0.994 9.533 -11.617
-1.234 9.541 -11.587
-1.474 9.522 -11.478
-1.714 9.560 -11.575
-1.964 9.543 -11.486
-2.204 9.536 -11.396
-2.454 9.531 -11.337
-2.694 9.557 -11.405
-2.934 9.537 -11.276
-3.184 9.504 -11.118
-3.424 9.530 -11.186
-3.664 9.522 -11.087
-3.914 9.519 -11.047
-4.154 9.515 -10.997
-4.404 9.492 -10.838
-4.644 9.490 -10.808
-4.894 9.469 -10.669
-5.144 9.436 -10.511
-5.384 9.415 -10.363
-5.624 9.438 -10.401
-5.874 9.420 -10.302
-6.124 9.385 -10.114
-6.364 9.394 -10.104
-6.604 9.451 -10.320
-6.824 9.598 -10.910
-10.244 11.092 -15.748
-10.454 11.224 -16.279
-10.454 11.076 -16.682
-10.224 10.974 -16.279
-10.684 11.311 -16.613
-10.684 11.136 -16.938
-25.784 10.000 -9.514
-25.534 10.018 -9.613
-26.034 9.979 -9.375
-26.294 9.928 -9.109
-26.544 9.908 -8.980
-26.794 9.872 -8.782
-27.044 9.880 -8.761
-27.294 9.860 -8.632
-27.534 9.856 -8.573
-27.794 9.804 -8.296
-28.064 9.726 -7.951
-28.324 9.657 -7.585
-28.594 9.592 -7.269
-28.834 9.602 -7.258
-29.074 9.612 -7.268
-29.314 9.622 -7.267
-29.564 9.632 -7.266
-29.814 9.615 -7.167
-30.054 9.622 -7.136
-30.304 9.606 -7.058
-30.564 9.570 -6.850
-30.824 9.520 -6.603
-31.074 9.484 -6.395
-31.324 9.464 -6.276
-31.574 9.456 -6.177
-31.824 9.469 -6.206
-32.054 9.522 -6.372
-32.304 9.506 -6.293
-32.554 9.482 -6.124
-32.814 9.435 -5.907
-33.064 9.635 -5.641
-33.064 9.430 -5.838
-33.314 9.612 -5.482
-33.334 9.345 -5.393
-38.454 7.472 4.631
-38.434 7.327 4.178
-38.174 7.334 4.099
-39.014 7.263 5.638
-39.254 7.086 5.333
-38.994 7.137 5.066
-39.534 7.018 5.689
-39.804 6.949 6.054
-40.074 7.104 6.508
-40.054 6.960 6.045
34.246 13.836 -36.085
33.996 13.711 -36.536
34.236 13.657 -36.350
33.756 13.782 -36.802
33.526 13.827 -36.979
33.286 13.896 -37.224
33.046 13.921 -37.292
32.816 13.979 -37.518
32.576 13.991 -37.537
32.346 14.048 -37.754
32.106 14.042 -37.674
31.876 13.960 -37.279
31.646 13.893 -36.933
31.416 13.907 -36.982
31.176 13.917 -36.982
30.946 13.971 -37.158
30.706 14.074 -37.571
30.476 14.008 -37.245
30.236 13.989 -37.126
30.006 13.955 -36.948
29.766 13.993 -37.056
29.536 14.007 -37.105
29.296 14.091 -37.409
29.066 14.102 -37.418
28.826 14.080 -37.270
28.596 14.078 -37.240
28.366 14.087 -37.229
28.126 14.067 -37.100
27.896 14.063 -37.050
27.656 14.057 -36.971
27.426 14.087 -37.099
27.196 14.067 -36.980
26.956 14.104 -37.057
26.726 14.100 -37.007
26.486 14.251 -37.657
26.246 14.245 -37.578
26.016 14.241 -37.528
25.786 14.217 -37.349
25.546 14.063 -36.669
24.896 7.222 -6.974
25.146 7.211 -6.955
24.656 7.233 -6.983
24.416 7.257 -7.032
24.166 7.271 -7.081
23.926 7.295 -7.139
23.686 7.321 -7.217
23.436 7.346 -7.276
23.196 7.371 -7.344
22.956 7.411 -7.461
22.706 7.453 -7.618
22.466 7.465 -7.637
22.226 7.488 -7.676
21.976 7.529 -7.813
21.736 7.540 -7.832
21.496 7.579 -7.939
21.256 7.607 -8.037
21.006 7.676 -8.283
20.766 7.701 -8.341
20.526 7.742 -8.478
20.286 7.752 -8.487
20.036 7.780 -8.585
19.796 7.819 -8.703
19.556 7.878 -8.939
19.316 7.871 -8.849
19.066 7.956 -9.163
18.826 7.940 -9.084
18.586 8.022 -9.369
18.346 8.036 -9.418
18.106 8.079 -9.575
17.856 8.104 -9.643
17.616 8.113 -9.633
17.376 8.201 -9.977
17.136 8.226 -10.045
16.896 8.218 -9.945
16.646 8.261 -10.102
16.406 8.302 -10.240
16.166 8.359 -10.456
15.926 8.384 -10.524
15.686 8.440 -10.720
15.446 8.467 -10.808
15.206 8.474 -10.778
14.966 8.545 -11.033
14.726 8.572 -11.121
14.486 8.615 -11.288
14.236 8.652 -11.376
13.996 8.682 -11.504
13.756 8.720 -11.611
13.516 8.745 -11.669
13.276 8.799 -11.846
13.036 8.828 -11.964
12.796 8.851 -11.992
12.556 8.865 -12.051
12.316 8.891 -12.119
12.076 8.901 -12.118
11.836 8.927 -12.197
11.586 8.963 -12.274
11.346 8.989 -12.352
11.106 9.003 -12.401
10.866 9.011 -12.371
10.626 9.021 -12.370
10.386 9.061 -12.497
10.146 9.029 -12.349
9.896 9.041 -12.368
9.656 9.092 -12.515
9.416 9.102 -12.514
9.176 9.129 -12.592
8.936 9.156 -12.690
8.696 9.165 -12.669
8.456 9.193 -12.778
8.216 9.203 -12.767
7.976 9.200 -12.737
7.736 9.209 -12.726
7.486 9.220 -12.735
7.246 9.243 -12.774
7.006 9.255 -12.793
6.766 9.263 -12.772
6.526 9.276 -12.801
6.286 9.273 -12.771
6.046 9.297 -12.820
5.796 9.307 -12.819
5.556 9.319 -12.838
5.316 9.341 -12.866
5.076 9.325 -12.797
4.836 9.352 -12.875
4.596 9.359 -12.845
4.346 9.353 -12.765
4.106 9.366 -12.804
3.866 9.374 -12.783
3.626 9.387 -12.812
3.386 9.395 -12.792
3.146 9.394 -12.772
2.896 9.401 -12.741
2.656 9.412 -12.750
2.416 9.409 -12.710
2.166 9.375 -12.533
1.926 9.382 -12.492
1.686 9.392 -12.501
1.436 9.374 -12.392
1.196 9.371 -12.352
0.956 9.362 -12.243
0.706 9.360 -12.213
0.466 9.382 -12.241
0.226 9.379 -12.201
-0.014 9.373 -12.131
-0.264 9.372 -12.111
-0.504 9.379 -12.071
-0.744 9.373 -12.001
-0.994 9.370 -11.961
-1.234 9.367 -11.921
-1.474 9.364 -11.881
-1.714 9.374 -11.881
-1.964 9.350 -11.712
-2.214 9.332 -11.613
-2.454 9.342 -11.612
-2.694 9.351 -11.592
-2.934 9.335 -11.513
-3.184 9.329 -11.443
-3.424 9.353 -11.491
-3.674 9.320 -11.323
-3.914 9.330 -11.322
-4.164 9.310 -11.194
-4.404 9.304 -11.124
-4.644 9.297 -11.034
-4.894 9.308 -11.043
-5.134 9.286 -10.894
-5.384 9.286 -10.894
-5.634 9.248 -10.667
-5.874 9.216 -10.509
-6.124 9.236 -10.517
-6.364 9.234 -10.487
-6.604 9.244 -10.487
-6.834 9.346 -10.890
-8.174 10.255 -13.527
-8.404 10.309 -13.703
-8.404 10.120 -13.969
-8.174 10.049 -13.703
-8.634 10.385 -14.028
-8.634 10.237 -14.441
-8.874 10.411 -14.106
-8.854 10.370 -14.982
-9.094 10.540 -14.587
-9.084 10.396 -15.060
-9.324 10.598 -14.814
-9.314 10.455 -15.296
-10.454 10.870 -16.869
-10.234 10.782 -16.524
-10.674 11.002 -17.410
-10.914 11.221 -17.252
-10.904 11.089 -17.744
-11.124 11.367 -17.833
-11.114 11.225 -18.325
-25.784 9.776 -9.602
-25.544 9.782 -9.682
-26.034 9.771 -9.532
-26.284 9.754 -9.443
-26.534 9.733 -9.314
-26.794 9.694 -9.067
-27.044 9.661 -8.899
-27.284 9.686 -8.967
-27.554 9.605 -8.572
-27.804 9.557 -8.345
-28.074 9.476 -7.951
-28.334 9.437 -7.713
-28.594 9.387 -7.456
-28.834 9.397 -7.465
-29.074 9.410 -7.504
-29.314 9.420 -7.493
-29.564 9.416 -7.444
-29.804 9.422 -7.403
-30.054 9.418 -7.343
-30.314 9.385 -7.185
-30.564 9.346 -6.938
-30.824 9.295 -6.681
-31.084 9.263 -6.523
-31.334 9.242 -6.384
-31.584 9.219 -6.225
-31.834 9.202 -6.136
-32.074 9.227 -6.195
-32.314 9.251 -6.243
-32.574 9.231 -6.114
-32.824 9.184 -5.897
-33.074 9.174 -5.777
-33.344 9.125 -5.531
-38.414 7.169 3.765
-38.154 7.190 3.626
-38.694 7.279 4.415
-38.694 7.073 4.219
-38.974 6.974 4.712
-39.244 6.925 4.959
-39.524 6.815 5.462
-39.784 6.779 5.660
-40.064 6.712 6.006
34.716 13.455 -35.573
34.476 13.588 -36.115
34.466 13.391 -36.291
34.706 13.332 -36.055
34.226 13.477 -36.615
33.986 13.519 -36.772
33.746 13.588 -37.007
33.516 13.633 -37.194
33.276 13.673 -37.322
33.046 13.699 -37.400
32.806 13.708 -37.379
32.576 13.670 -37.161
32.336 13.711 -37.299
32.106 13.725 -37.348
31.866 13.706 -37.229
31.636 13.714 -37.208
31.406 13.740 -37.276
31.166 13.736 -37.236
30.936 13.777 -37.364
30.696 13.816 -37.481
30.466 13.831 -37.540
30.226 13.776 -37.223
29.996 13.817 -37.371
29.766 13.722 -36.927
29.526 13.734 -36.946
29.296 13.775 -37.083
29.056 13.803 -37.191
28.826 13.828 -37.249
28.586 13.851 -37.288
28.356 13.785 -36.962
28.126 13.769 -36.883
27.886 13.837 -37.108
27.646 13.862 -37.176
27.416 13.874 -37.196
27.186 13.856 -37.097
26.946 13.866 -37.096
26.716 13.877 -37.105
26.476 13.933 -37.311
26.246 13.971 -37.409
26.006 14.012 -37.556
25.776 13.981 -37.408
25.536 14.001 -37.416
24.886 6.988 -7.063
25.136 6.977 -7.044
24.646 6.994 -7.012
24.406 7.024 -7.140
24.156 7.061 -7.218
23.916 7.086 -7.286
23.676 7.114 -7.384
23.426 7.152 -7.491
23.186 7.166 -7.530
22.946 7.221 -7.727
22.696 7.247 -7.805
22.456 7.260 -7.834
22.216 7.298 -7.941
21.976 7.339 -8.079
21.726 7.379 -8.206
21.486 7.420 -8.343
21.246 7.433 -8.382
20.996 7.455 -8.410
20.756 7.495 -8.528
20.516 7.539 -8.705
20.276 7.596 -8.921
20.026 7.617 -8.939
19.786 7.616 -8.919
19.546 7.684 -9.145
19.306 7.696 -9.174
19.066 7.750 -9.350
18.816 7.777 -9.438
18.576 7.804 -9.527
18.336 7.843 -9.634
18.096 7.887 -9.821
17.856 7.928 -9.958
17.616 7.984 -10.154
17.366 8.025 -10.292
17.126 8.035 -10.291
16.886 8.088 -10.457
16.646 8.130 -10.604
16.406 8.169 -10.722
16.166 8.196 -10.810
15.916 8.207 -10.819
15.676 8.248 -10.956
15.436 8.288 -11.083
15.196 8.299 -11.103
14.956 8.352 -11.269
14.716 8.414 -11.535
14.476 8.452 -11.642
14.236 8.465 -11.681
13.996 8.516 -11.818
13.756 8.530 -11.867
13.516 8.555 -11.925
13.266 8.578 -11.973
13.026 8.604 -12.042
12.786 8.646 -12.189
12.546 8.658 -12.218
12.306 8.696 -12.325
12.066 8.710 -12.374
11.826 8.746 -12.452
11.586 8.743 -12.412
11.336 8.724 -12.293
11.096 8.763 -12.410
10.856 8.778 -12.469
10.616 8.799 -12.488
10.376 8.826 -12.566
10.136 8.823 -12.536
9.896 8.861 -12.633
9.656 8.860 -12.613
9.416 8.945 -12.937
9.176 8.957 -12.957
8.936 8.967 -12.956
8.696 8.993 -13.034
8.446 8.970 -12.875
8.206 8.995 -12.934
7.966 9.005 -12.933
7.726 9.020 -12.992
7.486 9.059 -13.109
7.246 9.082 -13.147
7.006 9.081 -13.137
6.766 9.092 -13.147
6.526 9.102 -13.146
6.276 9.113 -13.155
6.036 9.124 -13.164
5.796 9.133 -13.153
5.556 9.157 -13.212
5.316 9.139 -13.103
5.076 9.149 -13.102
4.826 9.171 -13.130
4.586 9.181 -13.130
4.346 9.165 -13.051
4.106 9.187 -13.079
3.866 9.200 -13.118
3.626 9.195 -13.058
3.376 9.220 -13.116
3.136 9.188 -12.959
2.896 9.198 -12.958
2.656 9.223 -13.026
2.406 9.202 -12.887
2.166 9.197 -12.827
1.926 9.209 -12.847
1.676 9.201 -12.747
1.436 9.199 -12.727
1.196 9.208 -12.706
0.956 9.189 -12.597
0.706 9.197 -12.567
0.466 9.207 -12.566
0.226 9.218 -12.575
-0.024 9.196 -12.426
-0.264 9.166 -12.298
-0.504 9.187 -12.317
-0.754 9.169 -12.218
-0.994 9.194 -12.276
-1.234 9.174 -12.147
-1.484 9.156 -12.048
-1.724 9.148 -11.949
-1.964 9.174 -12.017
-2.214 9.156 -11.918
-2.454 9.149 -11.828
-2.694 9.146 -11.798
-2.944 9.143 -11.748
-3.184 9.153 -11.748
-3.424 9.161 -11.727
-3.674 9.144 -11.638
-3.914 9.138 -11.568
-4.164 9.118 -11.439
-4.404 9.129 -11.448
-4.644 9.122 -11.359
-4.894 9.103 -11.240
-5.144 9.084 -11.131
-5.384 9.080 -11.081
-5.634 9.071 -10.962
-5.874 9.040 -10.824
-6.124 9.034 -10.754
-6.364 9.056 -10.782
-6.604 9.053 -10.742
-6.824 9.200 -11.333
-7.484 9.818 -12.809
-7.714 9.909 -13.203
-7.704 9.760 -13.606
-7.484 9.673 -13.261
-7.944 9.975 -13.408
-7.934 9.846 -13.930
-8.164 9.919 -14.225
-8.404 9.976 -14.431
-8.624 10.064 -14.785
-8.854 10.164 -15.169
-9.084 10.247 -15.463
-9.314 10.323 -15.788
-9.544 10.526 -15.562
-9.544 10.378 -15.974
-10.004 10.699 -16.230
-10.224 10.651 -17.026
-9.984 10.599 -16.870
-10.444 10.725 -17.331
-10.674 10.841 -17.774
-25.784 9.572 -9.819
-25.544 9.559 -9.770
-26.034 9.569 -9.769
-26.284 9.561 -9.679
-27.034 9.487 -9.244
-26.784 9.520 -9.411
-27.284 9.480 -9.154
-27.554 9.399 -8.759
-27.804 9.362 -8.541
-28.074 9.282 -8.166
-28.334 9.233 -7.929
-28.594 9.181 -7.653
-28.824 9.220 -7.760
-29.064 9.247 -7.848
-29.314 9.228 -7.739
-29.564 9.207 -7.600
-29.814 9.205 -7.571
-30.064 9.197 -7.471
-30.314 9.177 -7.342
-30.574 9.127 -7.085
-30.834 9.078 -6.848
-31.084 9.071 -6.759
-31.334 9.050 -6.620
-31.594 9.002 -6.393
-31.854 8.950 -6.116
-32.094 8.962 -6.135
-32.334 8.985 -6.184
-32.584 8.968 -6.085
-32.824 8.976 -6.064
-33.094 8.909 -5.718
-33.354 8.873 -5.520
-33.604 9.060 -5.215
-33.624 8.795 -5.165
-33.874 8.995 -4.909
-33.884 8.741 -4.859
-34.154 8.882 -4.356
-34.154 8.678 -4.573
-34.434 8.784 -3.882
-34.444 8.520 -3.843
-34.714 8.671 -3.329
-34.714 8.438 -3.438
-37.914 7.166 3.674
-38.144 7.018 3.261
-37.884 7.039 3.122
-38.414 6.950 3.617
-38.694 6.852 4.101
-38.964 6.803 4.338
-39.234 6.735 4.693
-39.514 6.654 5.088
-39.774 6.607 5.305
-40.074 6.462 5.996
-41.604 5.101 13.222
-41.884 5.032 13.587
-41.864 4.862 13.203
-41.554 5.033 12.424
34.456 13.211 -36.556
34.696 13.124 -36.211
34.216 13.269 -36.782
33.976 13.339 -37.027
33.736 13.395 -37.233
33.506 13.419 -37.282
33.266 13.446 -37.370
33.036 13.458 -37.389
32.796 13.436 -37.240
32.566 13.418 -37.141
32.336 13.413 -37.081
32.096 13.453 -37.199
31.856 13.509 -37.405
31.626 13.507 -37.375
31.396 13.529 -37.403
31.156 13.540 -37.422
30.926 13.521 -37.304
30.686 13.500 -37.165
30.456 13.542 -37.312
30.216 13.550 -37.291
29.986 13.580 -37.409
29.756 13.542 -37.192
29.516 13.552 -37.191
29.286 13.535 -37.102
29.046 13.576 -37.239
28.816 13.587 -37.248
28.576 13.578 -37.139
28.346 13.605 -37.217
28.116 13.600 -37.157
27.876 13.672 -37.442
27.646 13.655 -37.353
27.406 13.692 -37.431
27.176 13.690 -37.411
26.936 13.730 -37.538
26.706 13.679 -37.271
26.466 13.689 -37.270
26.236 13.734 -37.457
25.996 13.771 -37.545
25.766 13.724 -37.338
25.536 13.717 -37.248
24.886 6.703 -6.885
25.126 6.695 -6.905
24.636 6.702 -6.865
24.396 6.753 -7.011
24.156 6.784 -7.139
23.906 6.852 -7.375
23.666 6.879 -7.453
23.426 6.919 -7.580
23.176 6.989 -7.835
22.936 7.000 -7.854
22.696 7.040 -7.972
22.446 7.081 -8.119
22.206 7.120 -8.226
21.966 7.150 -8.354
21.716 7.202 -8.501
21.476 7.231 -8.619
21.236 7.258 -8.707
20.996 7.295 -8.794
20.746 7.324 -8.902
20.506 7.362 -9.010
20.266 7.387 -9.068
20.026 7.442 -9.264
19.776 7.482 -9.391
19.536 7.523 -9.529
19.296 7.549 -9.597
19.056 7.594 -9.784
18.816 7.616 -9.812
18.566 7.643 -9.900
18.326 7.685 -10.057
18.086 7.738 -10.214
17.846 7.752 -10.263
17.606 7.809 -10.479
17.366 7.861 -10.635
17.126 7.887 -10.714
16.876 7.914 -10.802
16.636 7.968 -10.978
16.396 7.981 -11.007
16.156 8.019 -11.115
15.916 8.059 -11.242
15.676 8.073 -11.281
15.436 8.098 -11.349
15.186 8.153 -11.535
14.946 8.165 -11.564
14.706 8.176 -11.574
14.466 8.199 -11.612
14.226 8.226 -11.700
13.986 8.252 -11.778
13.746 8.291 -11.886
13.506 8.335 -12.063
13.266 8.372 -12.150
13.016 8.382 -12.159
12.776 8.396 -12.198
12.536 8.436 -12.326
12.296 8.447 -12.345
