-20.760 4.371 29.428
-20.990 4.388 29.469
-21.209 4.406 29.590
-21.479 4.449 29.379
-21.759 4.489 28.997
-22.019 4.513 28.867
-22.228 4.532 29.008
-22.437 4.553 29.240
-22.666 4.570 29.291
-22.885 4.589 29.422
-23.043 4.586 29.995
-23.191 4.583 30.588
-23.410 4.602 30.749
-23.640 4.619 30.770
-23.869 4.647 30.850
-24.088 4.665 30.931
-24.317 4.683 31.022
-24.536 4.701 31.143
-24.776 4.736 31.053
-25.077 4.774 30.581
-25.388 4.822 30.099
-25.627 4.848 30.070
-25.846 4.876 30.130
-26.096 4.901 30.060
-26.335 4.928 30.071
-26.514 4.930 30.423
-26.662 4.928 31.056
-26.830 4.924 31.579
-27.039 4.942 31.700
-27.237 4.954 32.012
-27.477 4.981 31.992
-27.727 5.014 31.842
-27.956 5.031 31.872
-28.186 5.050 31.963
-28.415 5.076 31.954
-28.655 5.102 31.924
-28.914 5.136 31.814
-29.205 5.176 31.422
-29.434 5.203 31.453
-29.694 5.227 31.313
-29.974 5.268 31.002
-30.244 5.310 30.751
-30.464 5.329 30.872
-30.662 5.340 31.123
-30.882 5.357 31.194
-31.121 5.384 31.215
-31.381 5.417 31.004
-31.610 5.435 31.085
-31.830 5.453 31.166
-32.090 5.486 31.005
-32.349 5.521 30.895
-32.579 5.538 30.936
-32.798 5.566 31.027
-33.027 5.583 31.047
-33.287 5.617 30.917
-33.516 5.635 30.978
-33.726 5.654 31.109
-33.995 5.687 30.928
-34.255 5.721 30.758
-34.576 5.768 30.206
-34.836 5.810 30.005
-35.066 5.827 30.036
-35.285 5.846 30.157
-35.545 5.880 30.017
-35.784 5.906 29.987
-36.014 5.923 30.017
-36.263 5.958 29.937
-36.543 5.990 29.687
-36.783 6.016 29.657
-37.012 6.043 29.687
-37.262 6.069 29.628
-37.502 6.095 29.598
-37.751 6.129 29.478
-37.991 6.146 29.498
-38.261 6.188 29.258
-39.758 6.454 25.763
-39.508 6.429 25.833
-40.008 6.480 25.693
-40.268 6.514 25.553
-40.528 6.538 25.433
-40.767 6.565 25.413
-41.067 6.614 25.022
-41.353 6.410 24.867
-41.398 6.670 24.409
60.495 -2.329 -22.779
60.722 -2.330 -23.473
60.532 -2.087 -22.613
60.760 -2.094 -23.116
60.293 -2.074 -22.321
60.044 -2.047 -22.301
59.815 -2.042 -21.888
59.577 -2.027 -21.496
59.339 -2.015 -21.234
59.110 -2.000 -20.822
58.882 -1.994 -20.379
58.655 -1.986 -19.826
58.426 -1.980 -19.414
58.188 -1.958 -19.142
57.960 -1.952 -18.680
57.721 -1.946 -18.267
57.493 -1.934 -17.965
57.265 -1.918 -17.533
57.037 -1.910 -16.980
56.809 -1.903 -16.477
56.580 -1.899 -16.125
56.353 -1.891 -15.612
56.125 -1.885 -15.129
55.907 -1.876 -14.526
55.679 -1.870 -14.063
55.440 -1.856 -13.751
55.223 -1.856 -13.097
55.005 -1.849 -12.555
54.777 -1.834 -12.172
53.896 -1.820 -9.859
54.114 -1.827 -10.382
53.451 -1.812 -8.683
53.678 -1.820 -9.196
51.795 -1.862 -1.947
52.012 -1.863 -2.641
51.598 -1.877 -1.042
51.380 -1.870 -0.539
51.162 -1.871 0.054
50.955 -1.868 0.848
50.748 -1.877 1.572
50.530 -1.863 1.954
50.312 -1.855 2.487
50.083 -1.843 2.759
49.855 -1.830 3.091
49.657 -1.838 3.855
49.439 -1.832 4.338
49.221 -1.817 4.730
49.003 -1.810 5.243
48.775 -1.798 5.515
48.556 -1.784 5.867
48.338 -1.779 6.299
48.120 -1.774 6.722
47.891 -1.753 6.943
47.663 -1.739 7.315
47.444 -1.726 7.597
47.226 -1.722 7.979
46.997 -1.701 8.201
46.778 -1.697 8.593
46.550 -1.683 8.915
46.331 -1.663 9.106
46.092 -1.643 9.268
45.874 -1.631 9.580
45.645 -1.620 9.791
45.416 -1.600 9.972
45.187 -1.579 10.164
44.968 -1.568 10.415
44.739 -1.547 10.596
44.510 -1.536 10.838
44.282 -1.516 11.019
44.063 -1.504 11.281
43.834 -1.485 11.422
43.605 -1.465 11.603
43.376 -1.444 11.815
43.147 -1.433 12.036
42.918 -1.413 12.177
42.699 -1.393 12.379
42.470 -1.383 12.570
42.241 -1.363 12.711
42.012 -1.344 12.832
41.784 -1.322 13.114
41.555 -1.304 13.195
41.325 -1.285 13.296
41.097 -1.264 13.527
40.867 -1.247 13.558
40.628 -1.219 13.618
40.409 -1.209 13.810
40.170 -1.182 13.850
39.930 -1.155 13.841
39.701 -1.137 13.912
39.472 -1.118 14.063
39.243 -1.099 14.164
39.004 -1.071 14.244
38.774 -1.054 14.275
38.535 -1.027 14.305
38.316 -1.007 14.477
38.077 -0.989 14.568
37.847 -0.971 14.638
37.618 -0.943 14.719
37.379 -0.917 14.679
37.149 -0.899 14.760
36.920 -0.879 14.931
36.681 -0.861 15.002
36.462 -0.840 15.223
36.223 -0.824 15.214
35.993 -0.797 15.244
35.754 -0.769 15.285
35.525 -0.753 15.306
35.286 -0.724 15.386
35.056 -0.707 15.447
34.817 -0.680 15.437
34.577 -0.654 15.398
34.358 -0.635 15.569
34.119 -0.616 15.650
33.890 -0.599 15.700
33.660 -0.571 15.771
33.421 -0.544 15.782
33.181 -0.528 15.772
32.952 -0.508 15.923
32.723 -0.481 15.994
32.484 -0.455 15.944
32.244 -0.430 15.894
32.005 -0.403 15.905
31.775 -0.386 15.905
31.536 -0.359 15.946
31.296 -0.333 15.896
31.067 -0.307 15.926
30.827 -0.281 15.887
30.588 -0.264 15.897
30.348 -0.237 15.928
30.119 -0.210 15.968
29.880 -0.192 15.999
29.650 -0.166 15.989
29.411 -0.138 16.050
29.181 -0.122 16.070
28.932 -0.096 16.011
28.692 -0.061 15.941
28.463 -0.044 15.971
28.213 -0.019 15.901
27.984 0.008 15.932
27.744 0.035 15.952
27.515 0.052 15.983
27.265 0.086 15.833
27.015 0.119 15.672
26.775 0.144 15.572
26.536 0.170 15.573
26.297 0.197 15.573
26.057 0.214 15.584
25.828 0.241 15.614
25.578 0.266 15.544
25.338 0.300 15.404
25.088 0.325 15.334
24.849 0.350 15.254
24.609 0.385 15.184
24.370 0.411 15.164
24.130 0.437 15.115
23.880 0.462 15.035
23.641 0.487 14.955
23.401 0.512 14.895
23.161 0.539 14.885
22.912 0.572 14.735
22.672 0.599 14.745
22.433 0.624 14.675
22.193 0.650 14.656
21.943 0.676 14.616
21.704 0.701 14.546
21.464 0.728 14.567
21.225 0.753 14.477
20.985 0.779 14.457
20.735 0.812 14.286
20.496 0.840 14.317
20.246 0.864 14.197
20.006 0.889 14.117
19.767 0.915 14.087
19.527 0.940 14.048
19.278 0.976 14.008
19.038 1.002 13.938
18.798 1.026 13.858
18.559 1.053 13.868
18.309 1.078 13.788
18.059 1.112 13.648
17.820 1.138 13.618
17.580 1.165 13.619
17.351 1.182 13.649
17.101 1.208 13.600
16.862 1.242 13.499
16.612 1.268 13.470
16.383 1.285 13.470
16.143 1.311 13.461
15.914 1.339 13.551
15.654 1.363 13.401
15.414 1.398 13.321
15.185 1.417 13.452
14.956 1.436 13.553
14.706 1.460 13.463
14.467 1.486 13.413
14.207 1.519 13.223
13.978 1.547 13.293
13.738 1.572 13.223
13.498 1.590 13.274
13.269 1.617 13.335
13.030 1.634 13.355
12.780 1.669 13.235
12.541 1.695 13.236
12.311 1.713 13.316
12.062 1.748 13.216
11.822 1.773 13.156
11.583 1.800 13.157
11.353 1.818 13.258
11.114 1.845 13.248
10.864 1.870 13.198
10.625 1.896 13.159
10.385 1.922 13.139
10.146 1.949 13.139
9.906 1.975 13.100
9.677 1.993 13.180
9.438 2.020 13.191
9.198 2.046 13.181
8.958 2.062 13.172
8.719 2.090 13.202
8.480 2.116 13.172
8.230 2.140 13.072
8.001 2.168 13.143
7.751 2.194 13.083
7.512 2.220 13.074
7.282 2.239 13.185
7.053 2.257 13.255
6.803 2.290 13.115
6.574 2.308 13.196
6.335 2.336 13.236
6.096 2.363 13.277
5.856 2.389 13.227
5.616 2.415 13.208
5.377 2.432 13.218
5.138 2.459 13.249
4.898 2.486 13.249
4.658 2.511 13.189
4.419 2.538 13.200
4.200 2.548 13.391
3.961 2.576 13.442
3.731 2.593 13.502
3.492 2.619 13.453
3.253 2.646 13.483
3.023 2.665 13.584
2.815 2.676 13.836
2.575 2.703 13.886
2.336 2.730 13.897
2.117 2.749 14.028
1.908 2.761 14.329
1.679 2.779 14.400
1.450 2.798 14.531
1.231 2.818 14.723
1.002 2.837 14.834
0.783 2.856 14.955
0.554 2.876 15.126
0.345 2.887 15.387
0.095 2.912 15.308
-0.124 2.931 15.439
-0.363 2.958 15.439
-0.582 2.978 15.620
-0.811 2.995 15.681
-1.041 3.014 15.802
-1.280 3.041 15.822
-1.499 3.060 15.953
-1.728 3.079 16.094
-1.957 3.097 16.145
-2.146 3.102 16.608
-2.375 3.121 16.719
-2.620 2.910 16.805
-2.573 3.132 17.011
-3.913 2.993 18.093
-3.705 2.981 17.822
-3.856 3.217 18.379
-3.637 3.198 18.228
-4.142 3.021 18.184
-4.075 3.237 18.551
-4.341 3.033 18.486
-4.284 3.247 18.772
-4.503 3.268 19.014
-4.722 3.287 19.145
-4.961 3.314 19.135
-5.191 3.332 19.216
-5.420 3.349 19.267
-5.659 3.376 19.277
-5.879 3.395 19.398
-6.108 3.413 19.489
-6.337 3.432 19.600
-6.566 3.458 19.620
-6.806 3.485 19.611
-7.035 3.503 19.712
-7.254 3.523 19.873
-7.442 3.527 20.305
-7.630 3.532 20.748
-7.839 3.543 20.989
-8.068 3.571 21.070
-8.318 3.596 20.980
-8.496 3.600 21.432
-8.726 3.618 21.493
-8.934 3.639 21.725
-9.153 3.649 21.926
-9.383 3.677 21.987
-9.612 3.695 22.067
-9.821 3.714 22.239
-10.050 3.732 22.319
-10.259 3.743 22.541
-10.478 3.764 22.772
-10.676 3.775 23.054
-10.906 3.793 23.125
-11.135 3.812 23.226
-11.334 3.823 23.487
-11.563 3.850 23.528
-11.813 3.875 23.458
-12.042 3.893 23.529
-12.251 3.913 23.710
-12.480 3.940 23.771
-12.709 3.958 23.852
-12.928 3.969 24.053
-13.137 3.988 24.224
-13.326 3.992 24.616
-13.504 3.998 25.139
-13.692 4.001 25.491
-13.921 4.028 25.552
-14.151 4.046 25.633
-14.360 4.066 25.794
-14.589 4.084 25.865
-14.818 4.101 25.936
-15.037 4.120 26.077
-15.287 4.155 25.976
-15.527 4.181 25.927
-15.776 4.206 25.867
-16.016 4.231 25.787
-16.235 4.251 25.958
-16.434 4.262 26.240
-16.653 4.282 26.391
-16.892 4.308 26.401
-17.111 4.327 26.502
-17.300 4.329 26.834
-17.519 4.349 27.015
-17.738 4.367 27.106
-17.977 4.394 27.107
-18.186 4.413 27.288
-18.405 4.423 27.469
-18.604 4.434 27.721
-18.772 4.439 28.224
-18.981 4.451 28.495
-19.180 4.462 28.737
-19.389 4.482 28.938
-19.618 4.500 29.019
-19.847 4.527 29.069
-20.077 4.545 29.120
-20.296 4.563 29.221
-20.515 4.581 29.322
-20.744 4.609 29.403
-20.963 4.627 29.504
-21.203 4.644 29.514
-21.483 4.694 29.143
-21.753 4.726 28.902
-21.983 4.753 28.922
-22.212 4.771 29.013
-22.401 4.783 29.315
-22.650 4.808 29.225
-22.880 4.826 29.326
-23.068 4.838 29.658
-23.175 4.821 30.583
-23.353 4.824 30.955
-23.572 4.843 31.086
-23.802 4.860 31.127
-24.041 4.887 31.137
-24.301 4.921 30.977
-24.541 4.946 30.897
-24.791 4.980 30.776
-25.122 5.035 30.144
-25.362 5.061 30.074
-25.560 5.072 30.356
-25.810 5.097 30.276
-26.070 5.130 30.075
-26.330 5.164 29.945
-26.559 5.182 29.996
-26.778 5.210 30.077
-26.906 5.199 30.820
-27.003 5.173 31.795
-27.211 5.184 32.027
-27.441 5.210 32.037
-27.701 5.244 31.877
-27.940 5.269 31.837
-28.180 5.296 31.828
-28.409 5.313 31.868
-28.638 5.341 31.939
-28.898 5.374 31.768
-29.179 5.405 31.438
-29.408 5.432 31.458
-29.688 5.473 31.147
-29.989 5.512 30.725
-30.229 5.538 30.696
-30.438 5.557 30.877
-30.657 5.576 31.008
-30.886 5.604 31.048
-31.116 5.620 31.059
-31.375 5.654 30.899
-31.635 5.687 30.728
-31.834 5.699 31.000
-32.063 5.716 31.051
-32.303 5.751 31.001
-32.552 5.777 30.941
-32.782 5.794 30.951
-33.011 5.821 31.022
-33.251 5.847 30.972
-33.511 5.881 30.832
-33.740 5.898 30.873
-33.969 5.926 30.923
-34.240 5.958 30.673
-34.550 6.007 30.231
-34.830 6.047 29.900
-35.080 6.073 29.830
-35.289 6.093 30.021
-35.519 6.110 30.062
-35.758 6.135 30.012
-35.998 6.161 29.982
-36.247 6.187 29.912
-36.528 6.228 29.611
-36.798 6.262 29.441
-37.037 6.288 29.421
-37.246 6.307 29.582
-37.486 6.332 29.533
-37.745 6.367 29.392
-37.995 6.392 29.333
-38.255 6.426 29.172
-39.198 6.371 26.345
-39.493 6.657 25.808
-39.243 6.632 25.878
-39.742 6.692 25.698
-40.002 6.726 25.568
-40.251 6.752 25.538
-40.501 6.777 25.418
-40.761 6.811 25.288
-41.092 6.858 24.705
-41.433 6.914 24.083
60.998 -2.108 -23.428
60.786 -1.854 -23.021
61.025 -1.875 -23.242
60.548 -1.840 -22.669
60.309 -1.829 -22.477
60.081 -1.815 -22.105
59.842 -1.801 -21.793
59.604 -1.787 -21.451
59.375 -1.774 -21.119
59.137 -1.758 -20.707
58.899 -1.746 -20.415
58.670 -1.740 -19.992
58.442 -1.727 -19.660
58.204 -1.712 -19.298
57.965 -1.691 -19.067
57.736 -1.686 -18.674
57.508 -1.680 -18.202
57.281 -1.671 -17.649
57.052 -1.666 -17.216
56.824 -1.652 -16.854
56.586 -1.630 -16.612
56.347 -1.617 -16.290
56.129 -1.618 -15.717
55.901 -1.604 -15.335
55.683 -1.603 -14.671
55.455 -1.596 -14.168
55.217 -1.585 -13.937
54.999 -1.584 -13.273
54.771 -1.568 -12.811
54.538 -1.815 -12.081
54.543 -1.562 -12.368
54.320 -1.823 -11.317
54.314 -1.550 -12.086
51.592 -1.611 -1.681
51.800 -1.612 -2.404
51.375 -1.612 -1.097
51.168 -1.610 -0.313
50.971 -1.617 0.501
50.742 -1.612 0.904
50.545 -1.618 1.788
50.327 -1.611 2.271
50.109 -1.604 2.784
49.891 -1.600 3.156
49.663 -1.578 3.438
49.455 -1.584 4.252
49.237 -1.579 4.685
49.019 -1.573 5.147
48.801 -1.559 5.540
48.582 -1.554 5.922
48.354 -1.540 6.284
48.136 -1.535 6.707
47.917 -1.522 7.049
47.689 -1.500 7.290
47.460 -1.489 7.522
47.252 -1.482 8.045
47.023 -1.470 8.326
46.805 -1.457 8.618
46.576 -1.437 8.820
46.347 -1.425 9.071
46.129 -1.413 9.353
45.900 -1.392 9.574
45.671 -1.381 9.796
45.442 -1.361 9.947
45.213 -1.340 10.189
44.995 -1.328 10.440
44.766 -1.308 10.631
44.537 -1.296 10.913
44.318 -1.285 11.145
44.089 -1.265 11.306
43.860 -1.246 11.437
43.631 -1.225 11.638
43.402 -1.206 11.759
43.174 -1.193 12.101
42.945 -1.174 12.202
42.715 -1.164 12.394
42.487 -1.135 12.495
42.257 -1.116 12.636
42.028 -1.106 12.797
41.810 -1.085 13.049
41.581 -1.066 13.170
41.352 -1.046 13.341
41.112 -1.027 13.422
40.883 -1.008 13.553
40.654 -0.990 13.664
40.425 -0.971 13.785
40.196 -0.950 13.976
39.967 -0.933 14.007
39.738 -0.914 14.148
39.498 -0.886 14.198
39.269 -0.868 14.279
39.030 -0.841 14.290
38.811 -0.822 14.451
38.571 -0.804 14.491
38.342 -0.777 14.562
38.113 -0.758 14.693
37.884 -0.738 14.854
37.655 -0.720 14.905
37.415 -0.702 14.986
37.176 -0.676 14.956
36.936 -0.641 14.876
36.707 -0.625 14.887
36.468 -0.596 14.987
36.239 -0.577 15.098
36.009 -0.559 15.189
35.780 -0.540 15.330
35.551 -0.522 15.411
35.311 -0.496 15.351
35.082 -0.468 15.442
34.843 -0.442 15.412
34.603 -0.424 15.463
34.374 -0.396 15.544
34.145 -0.378 15.645
33.916 -0.359 15.756
33.676 -0.342 15.776
33.447 -0.316 15.767
33.208 -0.288 15.817
32.968 -0.262 15.807
32.729 -0.237 15.728
32.499 -0.219 15.828
32.270 -0.200 15.939
32.041 -0.173 15.990
31.801 -0.147 15.960
31.562 -0.120 15.971
31.333 -0.101 16.082
31.093 -0.076 16.032
30.854 -0.050 16.002
30.614 -0.033 16.023
30.374 -0.007 15.973
30.145 0.020 16.013
29.916 0.038 16.074
29.676 0.064 16.045
29.437 0.099 15.995
29.197 0.117 16.035
28.958 0.143 16.046
28.718 0.177 15.895
28.479 0.195 15.976
28.239 0.221 15.926
28.000 0.247 15.897
27.770 0.273 15.907
27.531 0.291 15.958
27.291 0.325 15.858
27.052 0.351 15.808
26.812 0.368 15.838
26.563 0.402 15.708
26.323 0.427 15.648
26.083 0.454 15.629
25.833 0.487 15.458
25.604 0.513 15.469
25.354 0.539 15.399
25.115 0.563 15.309
24.875 0.591 15.339
24.635 0.615 15.249
24.396 0.641 15.210
24.156 0.666 15.160
23.907 0.692 15.100
23.667 0.727 15.010
23.417 0.751 14.880
23.178 0.777 14.870
22.938 0.812 14.780
22.698 0.828 14.781
22.459 0.854 14.731
22.209 0.889 14.651
21.970 0.914 14.581
21.730 0.940 14.531
21.490 0.966 14.501
21.241 0.991 14.441
21.001 1.026 14.351
20.762 1.052 14.321
20.522 1.068 14.322
20.272 1.104 14.242
20.033 1.129 14.172
19.793 1.156 14.193
19.554 1.181 14.113
19.314 1.206 14.083
19.075 1.233 14.063
18.815 1.265 13.863
18.575 1.292 13.843
18.335 1.316 13.743
18.096 1.342 13.723
17.846 1.368 13.664
17.606 1.394 13.624
17.367 1.428 13.544
17.117 1.453 13.424
16.867 1.479 13.374
16.638 1.505 13.404
16.399 1.532 13.405
16.159 1.549 13.435
15.920 1.584 13.345
15.670 1.610 13.326
15.431 1.636 13.286
15.201 1.653 13.326
14.962 1.681 13.367
14.722 1.706 13.307
14.472 1.732 13.257
14.233 1.757 13.177
13.994 1.784 13.228
13.754 1.811 13.208
13.525 1.828 13.239
13.285 1.855 13.259
13.046 1.882 13.290
12.796 1.907 13.200
12.567 1.933 13.200
12.327 1.960 13.221
12.088 1.977 13.221
11.848 2.003 13.192
11.609 2.029 13.172
11.369 2.056 13.202
11.130 2.081 13.143
10.890 2.108 13.143
10.661 2.126 13.244
10.411 2.152 13.184
10.172 2.179 13.185
9.922 2.213 13.084
9.703 2.223 13.236
9.464 2.249 13.236
9.225 2.276 13.267
8.995 2.295 13.378
8.735 2.328 13.167
8.496 2.354 13.157
8.256 2.380 13.138
8.017 2.406 13.108
7.777 2.432 13.068
7.548 2.450 13.139
7.298 2.484 13.029
7.069 2.503 13.160
6.840 2.522 13.261
6.600 2.548 13.251
6.351 2.573 13.131
6.111 2.601 13.202
5.882 2.618 13.262
5.653 2.646 13.333
5.403 2.671 13.253
5.163 2.697 13.193
4.914 2.723 13.184
4.685 2.741 13.244
4.455 2.768 13.295
4.216 2.786 13.356
3.987 2.814 13.436
3.747 2.831 13.447
3.518 2.859 13.518
3.289 2.878 13.649
3.060 2.896 13.730
2.831 2.915 13.841
2.612 2.933 13.941
2.382 2.952 14.083
2.164 2.972 14.254
1.955 2.984 14.546
1.726 3.002 14.646
1.486 3.029 14.647
1.267 3.049 14.828
1.048 3.068 14.989
0.819 3.087 15.110
0.600 3.098 15.312
0.382 3.118 15.523
0.152 3.135 15.544
-0.087 3.162 15.554
-0.306 3.183 15.775
-0.546 3.200 15.786
-0.775 3.227 15.857
-1.004 3.245 15.937
-1.233 3.263 16.018
-1.452 3.284 16.240
-1.681 3.302 16.311
-1.890 3.314 16.582
-2.109 3.332 16.693
-2.318 3.345 17.015
-2.527 3.356 17.267
-3.209 3.176 17.785
-3.011 3.163 17.433
-3.132 3.393 18.232
-2.924 3.372 17.981
-3.408 3.188 18.077
-3.351 3.404 18.444
-3.580 3.431 18.474
-3.810 3.450 18.585
-4.039 3.469 18.706
-4.248 3.488 18.877
-4.477 3.506 18.958
-4.696 3.517 19.170
-4.925 3.544 19.230
-5.154 3.563 19.351
-5.394 3.589 19.342
-5.613 3.607 19.433
-5.842 3.626 19.513
-6.082 3.652 19.504
-6.311 3.670 19.565
-6.530 3.689 19.746
-6.759 3.707 19.817
-6.978 3.726 19.958
-7.187 3.738 20.229
-7.375 3.744 20.712
-7.574 3.755 20.984
-7.803 3.783 21.064
-8.032 3.801 21.135
-8.251 3.811 21.337
-8.460 3.831 21.518
-8.689 3.849 21.629
-8.898 3.870 21.840
-9.127 3.888 21.931
-9.356 3.907 22.042
-9.576 3.925 22.163
-9.805 3.943 22.244
-10.003 3.955 22.546
-10.212 3.966 22.797
-10.421 3.987 22.998
-10.630 3.997 23.210
-10.849 4.017 23.401
-11.088 4.044 23.402
-11.318 4.060 23.402
-11.557 4.087 23.402
-11.786 4.105 23.513
-12.006 4.124 23.624
-12.235 4.152 23.725
-12.444 4.161 23.886
-12.663 4.181 24.058
-12.892 4.199 24.148
-13.080 4.212 24.490
-13.269 4.217 24.943
-13.467 4.228 25.205
-13.676 4.239 25.446
-13.885 4.250 25.678
-14.114 4.277 25.718
-14.333 4.296 25.889
-14.532 4.307 26.141
-14.762 4.325 26.192
-15.011 4.360 26.122
-15.261 4.384 26.002
-15.490 4.411 26.032
-15.730 4.428 26.043
-15.979 4.463 25.933
-16.209 4.490 25.973
-16.459 4.514 25.853
-16.657 4.526 26.145
-16.866 4.538 26.426
-17.075 4.557 26.578
-17.304 4.575 26.668
-17.523 4.594 26.820
-17.732 4.604 27.021
-17.941 4.623 27.172
-18.171 4.641 27.233
-18.389 4.661 27.424
-18.598 4.681 27.635
-18.787 4.684 27.957
-18.986 4.695 28.259
-19.174 4.707 28.571
-19.373 4.719 28.863
-19.592 4.729 29.054
-19.821 4.756 29.095
-20.030 4.775 29.246
-20.259 4.793 29.296
-20.478 4.812 29.448
-20.718 4.839 29.438
-20.927 4.849 29.639
-21.166 4.883 29.549
-21.488 4.930 28.977
-21.727 4.955 28.927
-21.956 4.983 28.988
-22.176 5.002 29.109
-22.385 5.012 29.310
-22.614 5.039 29.351
-22.813 5.049 29.592
-23.052 5.076 29.593
-23.230 5.080 29.995
-23.419 5.083 30.377
-23.597 5.086 30.770
-23.847 5.122 30.699
-24.076 5.148 30.680
-24.306 5.165 30.751
-24.556 5.190 30.661
-24.866 5.247 30.098
-25.116 5.272 30.008
-25.346 5.289 30.059
-25.554 5.309 30.250
-25.804 5.344 30.150
-26.044 5.360 30.141
-26.283 5.386 30.101
-26.503 5.404 30.202
-26.742 5.431 30.202
-26.981 5.466 30.132
-27.109 5.446 30.926
-27.226 5.437 31.751
-27.486 5.470 31.550
-27.695 5.480 31.751
-27.924 5.498 31.822
-28.133 5.517 31.963
-28.363 5.544 32.014
-28.613 5.569 31.904
-28.913 5.618 31.492
-29.153 5.644 31.432
-29.413 5.668 31.312
-29.754 5.732 30.579
-30.014 5.765 30.419
-30.233 5.783 30.500
-30.432 5.794 30.771
-30.641 5.815 30.973
-30.850 5.824 31.154
-31.069 5.851 31.205
-31.359 5.893 30.894
-31.619 5.925 30.683
-31.838 5.944 30.804
-32.068 5.961 30.865
-32.307 5.988 30.865
-32.547 6.014 30.835
-32.786 6.040 30.786
-33.006 6.058 30.897
-33.245 6.085 30.897
-33.495 6.118 30.757
-33.734 6.145 30.737
-33.974 6.161 30.727
-34.234 6.195 30.567
-34.504 6.227 30.347
-34.815 6.276 29.885
-35.085 6.318 29.624
-35.314 6.336 29.715
-35.503 6.347 29.996
-35.742 6.374 29.997
-35.982 6.399 29.947
-36.231 6.425 29.877
-36.502 6.457 29.647
-36.782 6.499 29.386
-37.042 6.532 29.195
-37.271 6.551 29.286
-37.510 6.576 29.236
-37.770 6.610 29.096
-38.040 6.643 28.896
-39.507 6.912 25.552
-39.267 6.886 25.591
-39.747 6.938 25.522
-40.006 6.963 25.422
-40.256 6.997 25.312
-40.506 7.023 25.252
-40.776 7.056 25.041
-41.076 7.096 24.670
-41.367 7.137 24.349
61.264 -1.887 -23.504
61.503 -1.907 -23.645
61.301 -1.653 -23.228
61.529 -1.666 -23.560
61.062 -1.632 -23.017
60.823 -1.620 -22.775
60.575 -1.599 -22.574
60.346 -1.585 -22.232
60.108 -1.572 -21.920
59.869 -1.558 -21.568
59.641 -1.554 -21.205
59.402 -1.532 -20.954
59.163 -1.519 -20.682
58.925 -1.498 -20.480
58.696 -1.493 -20.078
58.469 -1.477 -19.595
58.219 -1.457 -19.484
57.980 -1.446 -19.273
57.752 -1.431 -18.830
57.524 -1.426 -18.458
57.296 -1.417 -17.875
57.068 -1.404 -17.543
56.829 -1.385 -17.412
56.601 -1.378 -16.939
56.351 -1.351 -16.919
51.172 -1.345 -0.961
51.379 -1.347 -1.735
50.540 -1.351 1.170
50.747 -1.352 0.456
50.333 -1.358 1.974
50.125 -1.360 2.548
49.897 -1.345 2.960
49.679 -1.340 3.403
49.471 -1.340 4.026
49.242 -1.329 4.268
49.035 -1.329 4.921
48.816 -1.314 5.344
48.598 -1.308 5.806
48.380 -1.301 6.329
48.162 -1.297 6.711
47.933 -1.285 6.973
47.725 -1.269 7.426
47.496 -1.258 7.667
47.268 -1.245 7.959
47.049 -1.232 8.291
46.831 -1.218 8.643
46.592 -1.198 8.794
46.373 -1.195 9.147
46.145 -1.174 9.358
45.926 -1.163 9.579
45.697 -1.140 9.881
45.468 -1.130 10.083
45.239 -1.112 10.164
45.011 -1.090 10.405
44.792 -1.078 10.717
44.563 -1.067 10.928
44.345 -1.045 11.200
44.116 -1.032 11.492
43.887 -1.013 11.613
43.658 -1.003 11.814
43.429 -0.982 11.996
43.200 -0.963 12.137
42.971 -0.936 12.167
42.742 -0.917 12.318
42.513 -0.897 12.459
42.283 -0.879 12.560
42.054 -0.868 12.762
41.825 -0.848 12.943
41.596 -0.829 13.074
41.367 -0.809 13.245
41.138 -0.798 13.457
40.910 -0.770 13.558
40.680 -0.752 13.608
40.451 -0.732 13.800
40.222 -0.720 14.031
39.993 -0.701 14.162
39.764 -0.673 14.233
39.535 -0.655 14.314
39.296 -0.628 14.354
39.066 -0.610 14.435
38.837 -0.592 14.526
38.608 -0.574 14.607
38.369 -0.546 14.678
38.139 -0.527 14.758
37.910 -0.510 14.829
37.671 -0.482 14.860
37.442 -0.464 14.971
37.212 -0.436 15.021
36.973 -0.411 14.981
36.733 -0.392 15.052
36.494 -0.366 15.053
36.265 -0.348 15.123
36.036 -0.320 15.184
35.796 -0.303 15.245
35.567 -0.275 15.305
35.338 -0.265 15.487
35.109 -0.237 15.537
34.879 -0.220 15.598
34.640 -0.192 15.649
34.411 -0.174 15.720
34.171 -0.147 15.730
33.942 -0.121 15.740
33.703 -0.103 15.811
33.463 -0.078 15.701
33.223 -0.052 15.712
33.005 -0.032 15.873
32.775 -0.013 15.994
32.526 0.021 15.884
32.296 0.039 15.934
32.057 0.066 15.965
31.817 0.091 15.915
31.588 0.109 15.996
31.359 0.128 16.107
31.130 0.148 16.268
30.890 0.181 16.118
30.651 0.207 16.098
30.411 0.225 16.159
30.171 0.250 16.079
29.932 0.276 16.059
29.693 0.303 16.049
29.463 0.329 16.040
29.224 0.347 16.091
28.984 0.381 15.980
28.744 0.406 15.941
28.505 0.433 15.951
28.266 0.459 15.921
28.026 0.483 15.811
27.786 0.510 15.802
27.547 0.537 15.852
27.307 0.562 15.762
27.068 0.588 15.722
26.828 0.606 15.783
26.599 0.631 15.753
26.359 0.658 15.734
26.109 0.683 15.664
25.870 0.718 15.594
25.620 0.751 15.423
25.380 0.776 15.333
25.141 0.803 15.354
24.901 0.820 15.385
24.672 0.847 15.395
24.432 0.872 15.345
24.183 0.897 15.235
23.933 0.930 15.075
23.693 0.965 15.005
23.444 0.991 14.965
23.204 1.015 14.835
22.954 1.040 14.755
22.724 1.067 14.755
22.475 1.101 14.665
22.235 1.127 14.615
21.986 1.152 14.546
21.746 1.179 14.526
21.507 1.204 14.496
21.267 1.229 14.416
21.027 1.256 14.417
20.777 1.288 14.196
20.528 1.314 14.136
20.288 1.340 14.136
20.059 1.359 14.247
19.830 1.387 14.308
19.570 1.419 14.097
19.340 1.445 14.098
19.091 1.471 14.028
18.840 1.503 13.797
18.591 1.529 13.748
18.351 1.555 13.758
18.112 1.579 13.638
17.862 1.615 13.588
17.633 1.633 13.679
17.383 1.667 13.518
17.133 1.691 13.398
16.904 1.719 13.449
16.675 1.738 13.590
16.435 1.754 13.571
16.185 1.788 13.430
15.936 1.813 13.370
15.706 1.840 13.391
15.467 1.866 13.361
15.227 1.893 13.361
14.988 1.910 13.392
14.748 1.945 13.332
14.519 1.964 13.423
14.280 1.981 13.484
14.040 2.007 13.444
13.780 2.040 13.264
13.541 2.076 13.194
13.301 2.101 13.134
13.062 2.118 13.154
12.822 2.145 13.165
12.603 2.165 13.366
12.353 2.190 13.256
12.104 2.215 13.196
11.864 2.250 13.116
11.625 2.267 13.157
11.396 2.286 13.278
11.156 2.313 13.268
10.917 2.339 13.249
10.688 2.367 13.309
10.438 2.391 13.189
10.198 2.418 13.199
9.948 2.442 13.079
9.719 2.470 13.180
9.490 2.489 13.291
9.240 2.514 13.181
9.011 2.532 13.282
8.772 2.567 13.212
8.522 2.593 13.152
8.282 2.619 13.132
8.033 2.644 13.073
7.804 2.672 13.113
7.574 2.690 13.224
7.335 2.717 13.214
7.085 2.742 13.135
6.856 2.760 13.236
6.627 2.779 13.326
6.377 2.813 13.226
6.148 2.830 13.257
5.898 2.857 13.227
5.658 2.882 13.187
5.440 2.902 13.369
5.200 2.928 13.329
4.950 2.953 13.249
4.711 2.980 13.259
4.472 3.007 13.290
4.242 3.025 13.351
4.003 3.052 13.381
3.774 3.070 13.442
3.555 3.090 13.623
3.336 3.109 13.794
3.107 3.128 13.925
2.857 3.154 13.876
2.638 3.173 14.007
2.419 3.183 14.198
2.190 3.203 14.349
1.981 3.223 14.581
1.773 3.235 14.852
1.533 3.262 14.863
1.304 3.281 14.974
1.095 3.291 15.215
0.856 3.309 15.266
0.647 3.321 15.548
0.408 3.356 15.488
0.179 3.375 15.609
-0.061 3.392 15.629
-0.280 3.411 15.780
-0.520 3.438 15.761
-0.749 3.456 15.852
-0.968 3.476 16.023
-1.187 3.495 16.184
-1.385 3.499 16.586
-1.604 3.519 16.758
-1.843 3.546 16.768
-2.052 3.558 17.050
-2.271 3.568 17.241
-2.470 3.580 17.563
-2.725 3.368 17.589
-2.668 3.584 17.965
-2.887 3.604 18.147
-3.075 3.608 18.529
-3.325 3.643 18.439
-3.544 3.653 18.640
-3.773 3.671 18.741
-3.992 3.690 18.872
-4.201 3.711 19.114
-4.430 3.730 19.245
-4.649 3.748 19.335
-4.899 3.774 19.276
-5.128 3.793 19.387
-5.368 3.818 19.347
-5.607 3.845 19.367
-5.836 3.863 19.418
-6.045 3.883 19.639
-6.275 3.900 19.680
-6.504 3.920 19.841
-6.712 3.940 20.052
-6.921 3.952 20.324
-7.110 3.955 20.686
-7.318 3.966 20.948
-7.547 3.985 21.069
-7.766 4.005 21.230
-7.985 4.024 21.371
-8.194 4.035 21.623
-8.413 4.054 21.754
-8.632 4.073 21.915
-8.862 4.091 21.956
-9.081 4.111 22.147
-9.320 4.136 22.107
-9.529 4.147 22.349
-9.738 4.159 22.621
-9.936 4.171 22.902
-10.165 4.199 22.993
-10.374 4.210 23.245
-10.593 4.229 23.366
-10.823 4.246 23.406
-11.052 4.274 23.497
-11.281 4.292 23.568
-11.521 4.318 23.568
-11.730 4.338 23.729
-11.959 4.356 23.810
-12.178 4.375 23.981
-12.407 4.393 24.022
-12.626 4.413 24.203
-12.856 4.430 24.254
-13.054 4.441 24.526
-13.253 4.455 24.888
-13.441 4.457 25.240
-13.671 4.476 25.331
-13.869 4.487 25.592
-14.078 4.507 25.804
-14.287 4.517 26.005
-14.516 4.545 26.066
-14.766 4.570 26.006
-14.995 4.597 26.036
-15.224 4.615 26.127
-15.444 4.634 26.248
-15.683 4.660 26.238
-15.933 4.694 26.078
-16.203 4.727 25.878
-16.473 4.759 25.617
-16.682 4.778 25.768
-16.871 4.782 26.190
-17.049 4.786 26.593
-17.258 4.796 26.824
-17.466 4.817 27.066
-17.676 4.827 27.257
-17.895 4.846 27.368
-18.134 4.872 27.348
-18.343 4.892 27.570
-18.552 4.902 27.751
-18.771 4.922 27.942
-18.970 4.933 28.214
-19.158 4.936 28.566
-19.346 4.949 28.928
-19.566 4.968 29.069
-19.785 4.987 29.190
-20.014 5.003 29.201
-20.233 5.022 29.332
-20.463 5.049 29.372
-20.661 5.061 29.664
-20.891 5.078 29.685
-21.202 5.135 29.142
-21.461 5.169 28.982
-21.691 5.186 29.033
-21.900 5.205 29.194
-22.129 5.223 29.255
-22.358 5.250 29.295
-22.588 5.268 29.376
-22.807 5.286 29.487
-23.016 5.306 29.658
-23.225 5.316 29.880
-23.413 5.320 30.252
-23.592 5.323 30.664
-23.811 5.352 30.765
-24.010 5.362 30.986
-24.269 5.396 30.836
-25.141 5.525 29.672
-24.942 5.513 29.400
-25.360 5.543 29.783
-25.620 5.577 29.612
-25.829 5.586 29.804
-26.028 5.598 30.085
-26.237 5.617 30.257
-26.466 5.635 30.317
-26.736 5.676 30.036
-26.986 5.702 29.956
-27.185 5.713 30.228
-27.282 5.696 31.173
-27.470 5.699 31.555
-27.689 5.717 31.646
-27.898 5.737 31.817
-28.107 5.747 32.019
-28.347 5.773 32.009
-28.607 5.807 31.839
-28.887 5.847 31.477
-29.147 5.881 31.327
-29.417 5.914 31.126
-29.799 5.991 30.072
-30.029 6.009 30.133
-30.237 6.030 30.354
-30.467 6.047 30.395
-30.655 6.059 30.727
-30.844 6.070 31.008
-31.084 6.096 30.969
-31.343 6.121 30.849
-31.613 6.163 30.628
-31.843 6.180 30.638
-32.052 6.199 30.820
-32.291 6.226 30.800
-32.531 6.251 30.740
-32.791 6.285 30.610
-33.020 6.302 30.650
-33.239 6.322 30.791
-33.479 6.347 30.732
-33.718 6.373 30.722
-33.958 6.399 30.692
-34.208 6.434 30.582
-34.498 6.465 30.261
-34.788 6.515 29.920
-35.079 6.555 29.508
-35.329 6.581 29.479
-35.527 6.600 29.670
-35.747 6.610 29.831
-35.976 6.636 29.842
-36.205 6.664 29.892
-36.475 6.696 29.672
-36.755 6.729 29.431
-37.026 6.770 29.150
-37.296 6.803 28.950
-37.525 6.831 28.990
-37.795 6.864 28.790
-38.126 6.920 28.177
-39.512 7.148 25.386
-39.292 7.129 25.265
-39.761 7.183 25.326
-40.011 7.209 25.266
-40.250 7.235 25.247
-40.520 7.268 25.056
-40.780 7.302 24.916
-41.050 7.335 24.675
-41.320 7.368 24.465
-41.637 7.170 24.149
-41.570 7.393 24.415
61.327 -1.404 -23.213
61.566 -1.426 -23.475
61.089 -1.390 -22.871
60.850 -1.380 -22.700
60.612 -1.364 -22.288
60.373 -1.353 -22.056
60.145 -1.338 -21.674
59.906 -1.316 -21.412
59.657 -1.297 -21.301
59.418 -1.285 -21.059
59.190 -1.272 -20.767
58.941 -1.243 -20.657
58.712 -1.240 -20.314
58.474 -1.226 -19.982
58.245 -1.212 -19.630
58.006 -1.191 -19.429
57.779 -1.184 -18.906
57.540 -1.170 -18.574
57.301 -1.143 -18.564
57.062 -1.132 -18.382
56.823 -1.111 -18.151
56.584 -1.099 -17.879
56.356 -1.085 -17.527
56.112 -1.332 -16.798
56.128 -1.070 -17.145
55.895 -1.330 -16.084
55.900 -1.063 -16.662
55.656 -1.319 -15.882
55.661 -1.053 -16.460
50.534 -1.095 0.532
50.741 -1.089 -0.292
50.326 -1.096 1.186
50.130 -1.101 2.080
49.922 -1.100 2.794
49.694 -1.095 3.176
49.476 -1.082 3.528
49.258 -1.075 4.021
49.040 -1.077 4.585
48.822 -1.071 5.067
48.614 -1.063 5.620
48.395 -1.059 6.003
48.178 -1.043 6.475
47.959 -1.038 6.868
47.731 -1.025 7.189
47.512 -1.012 7.511
47.284 -1.000 7.793
47.055 -0.989 8.015
46.836 -0.975 8.357
46.608 -0.954 8.588
46.389 -0.950 8.961
46.161 -0.928 9.222
45.942 -0.917 9.444
45.713 -0.904 9.766
45.495 -0.891 10.068
45.266 -0.871 10.259
45.026 -0.854 10.279
44.808 -0.840 10.632
44.589 -0.827 10.953
44.360 -0.810 11.014
44.131 -0.789 11.226
43.913 -0.776 11.548
43.684 -0.756 11.739
43.455 -0.746 11.910
43.226 -0.725 12.122
42.997 -0.707 12.192
42.768 -0.688 12.323
42.528 -0.669 12.444
42.299 -0.649 12.606
42.070 -0.630 12.727
41.841 -0.610 12.878
41.612 -0.583 12.948
41.393 -0.571 13.200
41.154 -0.553 13.281
40.925 -0.533 13.452
40.696 -0.514 13.553
40.467 -0.487 13.624
40.238 -0.476 13.815
40.009 -0.455 14.026
39.780 -0.436 14.147
39.551 -0.417 14.279
39.322 -0.398 14.400
39.092 -0.372 14.400
38.853 -0.353 14.491
38.634 -0.334 14.652
38.395 -0.315 14.743
38.166 -0.297 14.824
37.936 -0.270 14.874
37.697 -0.243 14.885
37.457 -0.226 14.905
37.229 -0.198 15.006
36.999 -0.179 15.137
36.760 -0.162 15.118
36.531 -0.134 15.218
36.301 -0.116 15.299
36.072 -0.098 15.350
35.833 -0.072 15.340
35.593 -0.045 15.351
35.354 -0.018 15.371
35.125 0.000 15.452
34.895 0.027 15.493
34.656 0.045 15.553
34.427 0.072 15.594
34.187 0.089 15.614
33.968 0.108 15.766
33.729 0.136 15.826
33.500 0.154 15.897
33.260 0.180 15.867
33.020 0.205 15.797
32.781 0.233 15.848
32.552 0.250 15.889
32.312 0.277 15.909
32.083 0.296 16.010
31.844 0.322 16.000
31.625 0.342 16.172
31.385 0.368 16.142
31.146 0.393 16.092
30.906 0.419 16.042
30.667 0.445 16.043
30.437 0.463 16.113
30.198 0.489 16.064
29.958 0.515 16.064
29.708 0.539 15.944
29.479 0.566 15.954
29.239 0.593 15.955
29.000 0.620 15.975
28.760 0.645 15.905
28.521 0.670 15.866
28.281 0.696 15.826
28.052 0.714 15.877
27.802 0.747 15.716
27.563 0.774 15.757
27.323 0.800 15.707
27.083 0.825 15.657
26.844 0.852 15.667
26.615 0.870 15.748
26.375 0.896 15.719
26.125 0.930 15.568
25.886 0.954 15.458
25.636 0.988 15.328
25.396 1.013 15.238
25.146 1.048 15.138
24.907 1.065 15.158
24.688 1.083 15.269
24.448 1.110 15.270
24.199 1.144 15.150
23.949 1.168 15.019
23.709 1.203 14.959
23.469 1.228 14.890
23.220 1.253 14.810
22.980 1.278 14.730
22.730 1.314 14.650
22.491 1.340 14.640
22.251 1.356 14.610
22.022 1.382 14.601
21.782 1.408 14.581
21.543 1.434 14.561
21.293 1.460 14.522
21.054 1.495 14.442
20.804 1.519 14.301
20.564 1.545 14.252
20.324 1.570 14.202
20.075 1.606 14.152
19.835 1.631 14.092
19.585 1.655 13.972
19.346 1.682 13.962
19.106 1.707 13.882
18.867 1.734 13.913
18.627 1.760 13.893
18.388 1.785 13.813
18.138 1.811 13.763
17.898 1.845 13.653
17.649 1.870 13.573
17.409 1.895 13.513
17.170 1.922 13.534
16.940 1.940 13.605
16.701 1.967 13.625
16.461 1.993 13.575
16.212 2.027 13.445
15.962 2.052 13.385
15.743 2.072 13.536
15.504 2.090 13.597
15.254 2.124 13.477
15.014 2.148 13.377
14.764 2.174 13.317
14.535 2.203 13.448
14.306 2.220 13.459
14.066 2.246 13.469
13.817 2.280 13.339
13.567 2.306 13.259
13.327 2.331 13.219
13.098 2.349 13.270
12.848 2.375 13.250
12.609 2.410 13.160
12.359 2.435 13.070
12.120 2.462 13.101
11.880 2.489 13.101
11.641 2.515 13.071
11.411 2.532 13.122
11.172 2.559 13.132
10.933 2.585 13.123
10.693 2.611 13.093
10.443 2.637 13.043
10.204 2.663 13.034
9.964 2.689 13.004
9.725 2.716 13.004
9.496 2.734 13.075
9.256 2.760 13.075
9.017 2.778 13.116
8.777 2.804 13.086
8.538 2.829 13.037
8.288 2.855 12.997
8.059 2.882 12.997
7.830 2.901 13.138
7.601 2.929 13.219
7.351 2.954 13.149
7.111 2.980 13.099
6.872 2.998 13.160
6.632 3.024 13.150
6.403 3.051 13.181
6.164 3.078 13.181
5.914 3.104 13.152
5.685 3.122 13.243
5.445 3.148 13.193
5.206 3.175 13.233
4.977 3.193 13.314
4.737 3.219 13.284
4.508 3.237 13.345
4.269 3.265 13.416
4.039 3.283 13.517
3.810 3.302 13.608
3.581 3.329 13.668
3.362 3.340 13.910
3.133 3.358 13.971
2.904 3.376 14.062
2.664 3.403 14.082
2.466 3.417 14.444
2.237 3.435 14.555
2.018 3.446 14.766
1.799 3.466 14.948
1.580 3.486 15.129
1.350 3.502 15.150
1.121 3.531 15.240
0.892 3.540 15.392
0.663 3.569 15.502
0.434 3.587 15.573
0.205 3.605 15.654
-0.035 3.631 15.634
-0.264 3.650 15.765
-0.462 3.663 16.087
-0.681 3.682 16.258
-0.921 3.699 16.249
-1.130 3.720 16.510
-1.369 3.746 16.491
-1.578 3.758 16.782
-1.797 3.768 16.944
-2.046 3.803 16.884
-2.245 3.807 17.246
-2.423 3.804 17.829
-2.632 3.815 18.061
-2.871 3.842 18.071
-3.069 3.855 18.433
-3.278 3.866 18.675
-3.497 3.885 18.826
-3.716 3.896 19.037
-3.945 3.922 19.058
-4.195 3.947 18.978
-4.424 3.975 19.049
-4.643 3.985 19.240
-4.852 3.997 19.512
-5.081 4.024 19.562
-5.321 4.051 19.553
-5.560 4.077 19.543
-5.779 4.096 19.654
-6.019 4.112 19.655
-6.248 4.140 19.745
-6.457 4.152 20.037
-6.645 4.155 20.389
-6.854 4.168 20.721
-7.083 4.186 20.792
-7.282 4.197 21.064
-7.501 4.217 21.225
-7.710 4.228 21.476
-7.929 4.247 21.617
-8.138 4.258 21.849
-8.377 4.286 21.910
-8.606 4.303 21.960
-8.825 4.322 22.101
-9.044 4.342 22.262
-9.263 4.360 22.383
-9.462 4.373 22.725
-9.681 4.383 22.897
-9.910 4.410 22.917
-10.109 4.422 23.219
-10.328 4.441 23.390
-10.547 4.451 23.551
-10.776 4.479 23.642
-11.016 4.504 23.592
-11.245 4.523 23.673
-11.464 4.542 23.844
-11.683 4.560 23.925
-11.923 4.586 23.895
-12.152 4.604 23.996
-12.361 4.624 24.188
-12.590 4.643 24.279
-12.809 4.652 24.450
-13.008 4.674 24.721
-13.217 4.684 24.923
-13.435 4.704 25.104
-13.645 4.713 25.285
-13.863 4.734 25.487
-14.093 4.751 25.537
-14.302 4.770 25.698
-14.551 4.796 25.649
-14.791 4.822 25.609
-15.020 4.840 25.680
-15.260 4.876 25.650
-15.458 4.886 25.901
-15.687 4.906 26.032
-15.948 4.938 25.832
-16.198 4.962 25.692
-16.447 4.998 25.632
-16.686 5.024 25.612
-16.895 5.034 25.824
-17.094 5.046 26.135
-17.293 5.058 26.427
-17.491 5.069 26.689
-17.700 5.080 26.900
-17.899 5.092 27.202
-18.108 5.102 27.414
-18.327 5.121 27.555
-18.526 5.132 27.826
-18.734 5.153 28.038
-18.933 5.164 28.319
-19.132 5.176 28.601
-19.341 5.186 28.823
-19.540 5.197 29.084
-19.769 5.215 29.135
-19.988 5.242 29.206
-20.228 5.260 29.246
-20.436 5.280 29.438
-20.635 5.290 29.679
-20.926 5.330 29.278
-21.216 5.378 28.846
-21.415 5.390 29.128
-21.634 5.409 29.259
-21.874 5.436 29.279
-22.113 5.461 29.239
-22.363 5.485 29.099
-22.592 5.512 29.130
-22.811 5.531 29.261
-23.041 5.549 29.342
-23.240 5.560 29.583
-23.398 5.557 30.166
-24.106 5.636 30.157
-23.825 5.595 30.489
-24.703 5.487 29.430
-24.875 5.728 29.737
-24.656 5.709 29.596
-25.095 5.746 29.808
-25.344 5.781 29.727
-25.584 5.798 29.738
-25.803 5.816 29.839
-26.012 5.836 30.060
-26.272 5.869 29.870
-26.511 5.895 29.840
-26.741 5.913 29.891
-26.950 5.932 30.062
-27.179 5.959 30.082
-27.337 5.955 30.645
-27.444 5.928 31.550
-27.663 5.947 31.691
-27.872 5.966 31.822
-28.112 5.992 31.833
-28.341 6.019 31.853
-28.632 6.059 31.472
-28.881 6.084 31.372
-29.121 6.109 31.332
-29.503 6.189 30.358
-29.834 6.244 29.725
-30.084 6.269 29.615
-30.303 6.287 29.726
-30.471 6.292 30.209
-30.640 6.296 30.611
-30.848 6.306 30.843
-31.088 6.332 30.783
-31.327 6.359 30.803
-31.587 6.391 30.603
-31.837 6.426 30.513
-32.056 6.436 30.674
-32.275 6.463 30.734
-32.535 6.488 30.614
-32.785 6.523 30.524
-33.045 6.556 30.344
-33.264 6.575 30.465
-33.483 6.593 30.556
-33.733 6.618 30.486
-33.973 6.643 30.426
-34.202 6.671 30.497
-34.482 6.703 30.226
-34.762 6.744 29.935
-35.053 6.784 29.544
-35.313 6.817 29.373
-35.552 6.844 29.394
-35.731 6.847 29.766
-35.970 6.874 29.756
-36.210 6.899 29.706
-36.459 6.925 29.657
-36.729 6.967 29.406
-37.030 7.007 28.994
-37.290 7.040 28.844
-37.560 7.083 28.613
-37.820 7.107 28.483
-38.120 7.157 28.082
-39.073 7.111 25.164
-38.742 7.064 25.736
-39.037 7.341 25.260
-38.685 7.278 26.003
-39.286 7.376 25.139
-39.546 7.400 25.029
-39.776 7.428 25.070
-40.005 7.445 25.121
-40.265 7.479 25.000
-40.515 7.504 24.910
-40.774 7.539 24.770
-41.054 7.581 24.509
-41.335 7.613 24.279
-41.605 7.646 24.068
61.794 -1.432 -23.938
62.033 -1.452 -24.069
61.832 -1.204 -23.491
62.060 -1.211 -23.963
61.593 -1.184 -23.319
61.354 -1.164 -23.158
61.115 -1.151 -22.846
60.877 -1.138 -22.544
60.639 -1.123 -22.152
60.400 -1.102 -21.941
60.161 -1.091 -21.749
59.922 -1.068 -21.468
59.683 -1.051 -21.427
59.444 -1.038 -21.135
59.206 -1.016 -20.873
58.967 -1.005 -20.672
58.728 -0.984 -20.450
58.500 -0.971 -20.138
58.261 -0.959 -19.887
58.022 -0.939 -19.736
57.783 -0.917 -19.484
57.545 -0.902 -19.122
57.295 -0.878 -19.232
57.056 -0.858 -19.101
56.828 -0.852 -18.628
56.589 -0.830 -18.387
56.361 -0.825 -17.974
56.121 -0.799 -18.004
55.904 -0.805 -17.159
50.518 -0.815 -0.347
50.735 -0.816 -1.051
49.710 -0.842 2.930
49.917 -0.844 2.166
49.491 -0.836 3.363
49.263 -0.824 3.644
49.055 -0.825 4.258
48.837 -0.820 4.700
48.630 -0.817 5.484
48.401 -0.805 5.746
48.183 -0.800 6.189
47.965 -0.786 6.561
47.747 -0.779 7.064
47.518 -0.768 7.255
47.300 -0.753 7.688
47.081 -0.741 7.969
46.852 -0.728 8.281
46.623 -0.718 8.463
46.405 -0.696 8.714
46.176 -0.683 9.026
45.958 -0.671 9.328
45.729 -0.658 9.620
45.510 -0.654 10.002
45.292 -0.634 10.193
45.053 -0.614 10.335
44.834 -0.602 10.596
44.605 -0.590 10.868
44.376 -0.571 11.009
44.147 -0.543 11.100
43.918 -0.532 11.311
43.700 -0.518 11.663
43.471 -0.499 11.794
43.252 -0.488 12.056
43.013 -0.468 12.207
42.784 -0.449 12.308
42.555 -0.430 12.429
42.336 -0.409 12.681
42.107 -0.399 12.832
41.867 -0.372 12.863
41.639 -0.352 13.054
41.410 -0.332 13.225
41.191 -0.322 13.396
40.962 -0.301 13.598
40.733 -0.282 13.729
40.493 -0.255 13.749
40.264 -0.237 13.840
40.035 -0.218 13.951
39.796 -0.200 14.012
39.567 -0.172 14.123
39.348 -0.161 14.354
39.118 -0.143 14.435
38.879 -0.115 14.476
38.650 -0.096 14.607
38.421 -0.085 14.808
38.202 -0.066 14.979
37.963 -0.040 14.950
37.724 -0.012 15.000
37.494 0.005 15.031
37.265 0.033 15.132
37.026 0.051 15.192
36.797 0.070 15.323
36.567 0.097 15.354
36.328 0.114 15.375
36.099 0.142 15.445
35.859 0.159 15.436
35.620 0.186 15.456
35.390 0.212 15.446
35.151 0.238 15.447
34.911 0.256 15.488
34.682 0.282 15.488
34.453 0.302 15.639
34.214 0.329 15.670
33.984 0.346 15.720
33.755 0.374 15.761
33.515 0.391 15.822
33.286 0.409 15.892
33.047 0.436 15.913
32.817 0.463 15.923
32.568 0.488 15.863
32.338 0.515 15.884
32.109 0.533 15.965
31.870 0.552 16.046
31.640 0.577 16.026
31.391 0.612 15.926
31.161 0.630 16.007
30.932 0.657 16.037
30.692 0.674 16.028
30.453 0.700 16.028
30.224 0.728 16.089
29.984 0.753 16.049
29.745 0.772 16.140
29.516 0.798 16.110
29.266 0.832 15.980
29.026 0.848 15.980
28.797 0.876 16.051
28.547 0.901 15.941
28.308 0.935 15.841
28.068 0.952 15.861
27.839 0.980 15.952
27.589 1.004 15.802
27.349 1.039 15.712
27.110 1.056 15.722
26.870 1.082 15.703
26.641 1.110 15.783
26.391 1.141 15.513
26.141 1.166 15.443
25.902 1.201 15.342
25.652 1.226 15.273
25.422 1.253 15.293
25.183 1.269 15.274
24.943 1.304 15.203
24.704 1.331 15.214
24.454 1.355 15.104
24.214 1.381 15.054
23.975 1.407 15.034
23.735 1.432 14.954
23.485 1.466 14.834
23.246 1.492 14.815
23.006 1.518 14.775
22.767 1.544 14.725
22.527 1.562 14.796
22.288 1.597 14.716
22.038 1.629 14.515
21.798 1.647 14.556
21.569 1.673 14.586
21.319 1.698 14.476
21.080 1.724 14.427
20.840 1.750 14.417
20.601 1.776 14.417
20.361 1.802 14.357
20.101 1.835 14.187
19.861 1.869 14.067
19.632 1.888 14.198
19.382 1.913 14.098
19.133 1.947 13.958
18.893 1.973 13.918
18.654 1.998 13.878
18.404 2.024 13.828
18.164 2.050 13.809
17.925 2.075 13.729
17.675 2.109 13.598
17.436 2.136 13.619
17.206 2.154 13.680
16.967 2.180 13.640
16.717 2.205 13.550
16.477 2.231 13.520
16.228 2.266 13.440
15.988 2.291 13.360
15.749 2.317 13.371
15.519 2.335 13.451
15.270 2.370 13.331
15.030 2.387 13.352
14.780 2.420 13.201
14.541 2.448 13.232
14.301 2.473 13.172
14.062 2.500 13.172
13.822 2.516 13.173
13.583 2.552 13.133
13.343 2.568 13.124
13.104 2.594 13.094
12.854 2.620 13.054
12.615 2.655 12.984
12.375 2.681 12.954
12.135 2.698 12.965
11.896 2.725 12.975
11.657 2.752 12.986
11.427 2.779 13.016
11.178 2.805 12.987
10.948 2.822 13.007
10.699 2.848 12.978
10.469 2.874 12.988
10.220 2.901 12.968
9.991 2.928 12.999
9.741 2.954 12.949
9.502 2.980 12.929
9.272 2.997 12.960
9.022 3.022 12.900
8.793 3.050 12.941
8.544 3.076 12.911
8.314 3.102 12.921
8.065 3.129 12.902
7.846 3.148 13.033
7.606 3.165 13.093
7.367 3.191 13.024
7.117 3.226 12.943
6.867 3.251 12.884
6.638 3.278 12.914
6.409 3.296 13.005
6.180 3.316 13.146
5.940 3.341 13.086
5.701 3.359 13.147
5.472 3.387 13.238
5.232 3.405 13.268
5.003 3.431 13.279
4.764 3.459 13.319
4.524 3.484 13.270
4.305 3.495 13.511
4.076 3.514 13.622
3.857 3.525 13.844
3.628 3.553 13.944
3.398 3.570 13.975
3.169 3.589 14.096
2.950 3.608 14.247
2.732 3.629 14.449
2.512 3.638 14.620
2.263 3.665 14.610
2.044 3.685 14.781
1.835 3.695 15.003
1.606 3.714 15.134
1.387 3.734 15.305
1.168 3.754 15.496
0.929 3.772 15.537
0.710 3.790 15.638
0.481 3.809 15.779
0.221 3.852 15.558
-0.009 3.870 15.659
-0.217 3.882 15.921
-0.436 3.902 16.102
-0.655 3.912 16.314
-0.884 3.931 16.435
-1.114 3.949 16.516
-1.322 3.969 16.727
-1.551 3.988 16.848
-1.760 4.000 17.130
-1.979 4.019 17.281
-2.198 4.030 17.482
-2.397 4.043 17.834
-2.636 4.070 17.855
-2.845 4.079 18.036
-3.064 4.100 18.257
-3.242 4.096 18.750
-3.450 4.109 19.082
-3.690 4.135 19.062
-3.919 4.162 19.083
-4.159 4.178 19.073
-4.408 4.214 19.023
-4.638 4.232 19.104
-4.857 4.250 19.225
-5.055 4.253 19.567
-5.284 4.281 19.638
-5.524 4.299 19.679
-5.764 4.324 19.639
-5.992 4.353 19.740
-6.212 4.362 19.881
-6.400 4.376 20.283
-6.588 4.380 20.706
-6.807 4.391 20.917
-7.006 4.402 21.189
-7.225 4.422 21.360
-7.444 4.441 21.521
-7.683 4.458 21.552
-7.892 4.478 21.723
-8.132 4.505 21.743
-8.341 4.515 21.965
-8.549 4.527 22.237
-8.768 4.546 22.388
-8.987 4.565 22.509
-9.206 4.575 22.720
-9.415 4.596 22.951
-9.624 4.606 23.163
-9.843 4.625 23.304
-10.062 4.645 23.475
-10.281 4.664 23.626
-10.500 4.674 23.788
-10.740 4.699 23.738
-10.969 4.726 23.768
-11.198 4.754 23.819
-11.438 4.771 23.849
-11.657 4.791 24.011
-11.886 4.808 24.061
-12.115 4.836 24.132
-12.324 4.846 24.333
-12.543 4.865 24.464
-12.773 4.883 24.535
-12.961 4.896 24.907
-13.170 4.906 25.139
-13.399 4.925 25.230
-13.628 4.952 25.260
-13.878 4.977 25.190
-14.128 5.012 25.080
-14.367 5.038 25.060
-14.597 5.055 25.121
-14.765 5.061 25.614
-14.994 5.079 25.725
-15.234 5.105 25.665
-15.484 5.129 25.545
-15.743 5.163 25.395
-15.972 5.190 25.455
-16.171 5.202 25.727
-16.401 5.219 25.778
-16.640 5.245 25.758
-16.869 5.263 25.839
-17.068 5.274 26.100
-17.287 5.294 26.282
-17.476 5.306 26.603
-17.674 5.319 26.915
-17.863 5.323 27.318
-18.061 5.333 27.569
-18.260 5.345 27.851
-18.489 5.363 27.932
-18.688 5.374 28.173
-18.897 5.385 28.425
-19.085 5.398 28.777
-19.294 5.408 28.998
-19.523 5.436 29.049
-19.743 5.453 29.130
-19.972 5.471 29.211
-20.191 5.499 29.281
-20.410 5.508 29.423
-20.619 5.528 29.604
-20.971 5.590 28.790
-21.190 5.609 28.921
-21.399 5.628 29.103
-21.588 5.631 29.435
-21.899 5.678 28.933
-22.148 5.712 28.782
-22.378 5.730 28.863
-22.587 5.750 29.054
-22.806 5.769 29.196
-23.025 5.787 29.286
-23.254 5.814 29.317
-24.427 5.682 29.575
-24.630 5.939 29.641
-24.431 5.928 29.389
-24.859 5.966 29.702
-25.099 5.992 29.672
-25.349 6.017 29.572
-25.548 6.027 29.803
-25.777 6.055 29.864
-26.027 6.080 29.784
-26.286 6.114 29.614
-26.516 6.140 29.634
-26.735 6.150 29.775
-26.954 6.168 29.896
-27.173 6.196 29.967
-27.413 6.222 29.937
-27.581 6.217 30.440
-27.657 6.184 31.576
-27.541 6.059 31.498
-27.866 6.204 31.777
-28.086 6.221 31.828
-28.335 6.256 31.738
-28.677 6.310 31.045
-28.916 6.336 30.995
-29.319 6.422 29.860
-29.640 6.468 29.258
-29.370 6.294 30.325
-29.859 6.487 29.369
-30.078 6.515 29.459
-30.338 6.548 29.299
-30.516 6.552 29.711
-30.644 6.541 30.435
-30.853 6.552 30.667
-31.062 6.571 30.818
-31.311 6.597 30.758
-31.572 6.629 30.547
-31.811 6.656 30.538
-32.040 6.673 30.599
-32.260 6.691 30.679
-32.509 6.726 30.589
-32.769 6.760 30.429
-33.029 6.794 30.279
-33.268 6.819 30.249
-33.498 6.837 30.300
-33.748 6.863 30.250
-33.977 6.889 30.250
-34.216 6.916 30.261
-34.466 6.941 30.171
-34.726 6.974 29.980
-35.017 7.014 29.629
-35.297 7.056 29.338
-35.536 7.082 29.308
-35.735 7.093 29.600
-35.964 7.111 29.651
-36.204 7.137 29.611
-36.444 7.162 29.571
-36.724 7.204 29.280
-37.024 7.244 28.919
-37.284 7.277 28.739
-37.544 7.311 28.578
-37.814 7.344 28.378
-39.021 7.579 25.204
-38.690 7.532 25.776
-39.260 7.606 25.205
-39.510 7.640 25.104
-39.780 7.673 24.904
-40.030 7.699 24.854
-40.259 7.716 24.875
-40.519 7.751 24.765
-40.768 7.785 24.644
-41.048 7.818 24.434
-41.319 7.851 24.233
-41.568 7.885 24.103
62.298 -1.217 -24.396
62.548 -1.252 -24.316
62.335 -0.982 -24.100
62.575 -1.008 -24.070
62.097 -0.969 -23.818
61.858 -0.948 -23.597
61.619 -0.936 -23.335
61.381 -0.922 -23.003
61.142 -0.902 -22.832
60.903 -0.889 -22.540
60.665 -0.868 -22.318
60.425 -0.858 -22.157
60.187 -0.844 -21.835
59.948 -0.821 -21.553
59.699 -0.803 -21.492
59.460 -0.783 -21.311
59.221 -0.771 -21.069
58.993 -0.748 -20.778
58.754 -0.737 -20.556
58.515 -0.716 -20.335
58.277 -0.704 -20.073
58.027 -0.676 -20.052
57.798 -0.665 -19.821
57.560 -0.645 -19.640
57.321 -0.624 -19.458
57.071 -0.597 -19.448
56.833 -0.584 -19.166
56.583 -0.550 -19.276
48.624 -0.561 4.877
48.842 -0.558 4.353
48.416 -0.561 5.510
48.209 -0.554 6.053
47.980 -0.540 6.405
47.762 -0.535 6.807
47.543 -0.523 7.119
47.315 -0.518 7.502
47.097 -0.495 7.803
46.878 -0.492 8.166
46.649 -0.480 8.427
46.420 -0.461 8.559
46.191 -0.441 8.730
45.963 -0.427 9.052
45.744 -0.414 9.384
45.526 -0.401 9.716
45.297 -0.390 9.917
45.068 -0.368 10.199
44.850 -0.356 10.491
44.631 -0.353 10.813
44.402 -0.333 10.984
44.173 -0.314 11.105
43.934 -0.285 11.216
43.715 -0.275 11.407
43.486 -0.263 11.669
43.268 -0.241 11.930
43.039 -0.230 12.142
42.810 -0.212 12.233
42.581 -0.192 12.404
42.352 -0.171 12.625
42.123 -0.161 12.817
41.894 -0.132 12.918
41.665 -0.123 13.069
41.436 -0.102 13.290
41.217 -0.081 13.482
40.978 -0.063 13.562
40.749 -0.044 13.704
40.530 -0.024 13.855
40.290 -0.007 13.895
40.061 0.012 14.016
39.832 0.030 14.117
39.603 0.059 14.238
39.364 0.078 14.339
39.135 0.097 14.440
38.905 0.115 14.531
38.676 0.133 14.622
38.447 0.162 14.743
38.218 0.180 14.834
37.979 0.198 14.884
37.749 0.217 14.995
37.520 0.245 15.086
37.281 0.262 15.127
37.052 0.290 15.177
36.823 0.309 15.308
36.594 0.328 15.439
36.354 0.345 15.450
36.115 0.380 15.400
35.885 0.396 15.390
35.656 0.415 15.511
35.417 0.443 15.572
35.187 0.461 15.633
34.948 0.488 15.683
34.708 0.514 15.644
34.479 0.540 15.624
34.239 0.558 15.665
34.010 0.586 15.745
33.781 0.604 15.856
33.542 0.622 15.887
33.312 0.648 15.907
33.073 0.676 15.958
32.834 0.692 15.949
32.604 0.718 15.919
32.355 0.754 15.859
32.125 0.772 15.960
31.896 0.790 16.041
31.667 0.817 16.081
31.427 0.835 16.112
31.188 0.861 16.082
30.959 0.888 16.153
30.709 0.913 16.033
30.479 0.940 16.063
30.240 0.965 16.023
30.000 0.982 16.044
29.771 1.009 16.054
29.532 1.036 16.095
29.292 1.062 16.045
