-11.338 -12.184 -19.277
-11.098 -12.074 -19.287
-10.858 -11.954 -19.287
-10.618 -11.844 -19.297
-10.378 -11.714 -19.297
-10.138 -11.694 -19.297
-9.898 -11.594 -19.307
-9.658 -11.514 -19.307
-9.418 -11.314 -19.317
-9.188 -11.174 -19.327
-8.948 -10.994 -19.337
-8.708 -10.754 -19.347
-8.468 -10.414 -19.357
-8.228 -10.144 -19.367
-7.988 -9.824 -19.387
-7.748 -9.654 -19.387
31.722 8.206 -20.187
31.502 8.786 -20.207
31.962 7.916 -20.167
32.192 7.706 -20.157
32.422 7.276 -20.137
32.672 7.186 -20.137
32.902 6.976 -20.127
33.142 6.756 -20.117
33.382 6.626 -20.107
33.622 6.406 -20.107
33.862 6.286 -20.097
34.102 6.316 -20.097
34.342 6.136 -20.087
34.592 6.066 -20.087
34.832 5.996 -20.087
35.072 5.936 -20.077
35.312 5.876 -20.077
35.562 5.906 -20.077
35.812 5.996 -20.087
36.062 6.026 -20.087
36.312 6.296 -20.097
36.572 6.476 -20.107
36.822 6.706 -20.117
37.072 6.676 -20.117
37.322 6.816 -20.117
37.562 6.756 -20.117
37.802 6.646 -20.117
38.052 6.686 -20.117
38.302 6.716 -20.117
38.552 6.816 -20.117
38.812 7.126 -20.137
39.062 7.346 -20.147
40.022 -13.104 -19.237
39.792 -12.844 -19.247
40.242 -13.374 -19.227
40.472 -13.684 -19.207
40.692 -13.954 -19.197
40.932 -14.064 -19.197
41.162 -14.224 -19.187
41.392 -14.364 -19.177
41.632 -14.414 -19.177
41.862 -14.494 -19.177
42.102 -14.574 -19.167
42.332 -14.624 -19.167
42.572 -14.684 -19.167
42.812 -14.634 -19.167
43.052 -14.664 -19.167
43.292 -14.684 -19.167
43.532 -14.724 -19.167
43.762 -14.814 -19.157
44.002 -14.854 -19.157
44.242 -14.894 -19.157
44.472 -14.914 -19.157
44.722 -14.834 -19.157
44.952 -14.904 -19.157
45.192 -14.924 -19.157
45.432 -14.994 -19.147
45.662 -15.004 -19.147
45.902 -15.024 -19.147
46.152 -14.974 -19.147
46.382 -15.104 -19.147
46.612 -15.194 -19.137
46.852 -15.184 -19.147
47.092 -15.224 -19.137
47.332 -15.254 -19.137
47.572 -15.244 -19.137
47.812 -15.184 -19.137
48.052 -15.104 -19.147
48.302 -15.004 -19.147
48.542 -14.914 -19.157
48.782 -14.924 -19.157
49.022 -14.884 -19.157
49.262 -14.944 -19.157
49.512 -14.784 -19.157
49.752 -14.704 -19.167
49.992 -14.714 -19.167
50.232 -14.724 -19.157
50.482 -14.534 -19.167
50.722 -14.474 -19.177
50.972 -14.384 -19.177
51.212 -14.274 -19.177
51.472 -14.074 -19.187
51.722 -13.914 -19.197
54.582 -3.284 -19.667
54.352 -3.114 -19.677
54.812 -3.424 -19.667
55.052 -3.494 -19.657
55.282 -3.734 -19.647
55.502 -4.004 -19.637
55.742 -4.034 -19.637
55.972 -4.164 -19.627
56.202 -4.324 -19.617
56.442 -4.434 -19.617
56.692 -4.364 -19.617
56.942 -4.244 -19.627
57.192 -4.124 -19.627
57.452 -3.894 -19.637
57.702 -3.694 -19.647
57.942 -3.704 -19.647
58.212 -3.394 -19.667
-19.958 8.516 -20.447
-20.218 9.096 -20.467
-19.708 8.096 -20.427
-19.448 7.606 -20.407
-19.198 7.416 -20.397
-18.948 7.246 -20.387
-18.698 7.106 -20.377
-18.448 7.026 -20.377
-18.198 6.856 -20.367
-17.958 6.796 -20.367
-17.708 6.816 -20.367
-17.468 6.876 -20.367
-17.218 6.866 -20.367
-16.978 6.886 -20.367
-16.728 6.886 -20.367
-15.678 -11.244 -19.557
-15.928 -10.804 -19.577
-15.428 -11.534 -19.547
-15.188 -11.714 -19.537
-14.948 -11.814 -19.537
-14.698 -12.004 -19.527
-14.458 -12.084 -19.527
-14.218 -12.134 -19.517
-13.978 -12.154 -19.517
-13.738 -12.154 -19.517
-13.498 -12.214 -19.517
-13.258 -12.184 -19.517
-13.018 -12.314 -19.517
-12.778 -12.384 -19.507
-12.538 -12.304 -19.517
-12.298 -12.244 -19.517
-12.058 -12.244 -19.517
-11.818 -12.194 -19.517
-11.578 -12.144 -19.517
-11.338 -11.974 -19.527
-11.098 -11.964 -19.527
-10.858 -11.964 -19.527
-10.618 -11.884 -19.537
-10.378 -11.744 -19.537
-10.138 -11.704 -19.537
-9.898 -11.624 -19.547
-9.658 -11.594 -19.547
-9.418 -11.404 -19.557
-9.178 -11.234 -19.567
-8.948 -11.024 -19.567
-8.708 -10.704 -19.587
-8.468 -10.384 -19.597
-8.228 -10.134 -19.607
-7.988 -9.864 -19.627
31.732 8.366 -20.437
31.502 8.746 -20.457
31.962 7.956 -20.417
32.202 7.756 -20.407
32.432 7.466 -20.397
32.672 7.226 -20.387
32.912 7.086 -20.377
33.142 6.836 -20.367
33.382 6.696 -20.357
33.622 6.506 -20.357
33.862 6.346 -20.347
34.102 6.316 -20.347
34.352 6.216 -20.337
34.592 6.096 -20.337
34.832 6.026 -20.327
35.072 5.996 -20.327
35.322 6.006 -20.327
35.572 6.056 -20.337
35.812 6.026 -20.327
36.062 6.076 -20.337
36.322 6.356 -20.347
36.572 6.506 -20.357
36.822 6.546 -20.357
37.072 6.676 -20.357
37.312 6.706 -20.357
37.562 6.626 -20.357
37.802 6.676 -20.357
38.052 6.656 -20.357
38.302 6.776 -20.367
38.552 6.866 -20.367
38.802 7.076 -20.377
39.062 7.276 -20.387
40.472 -13.644 -19.447
40.252 -13.254 -19.467
40.702 -13.744 -19.447
40.932 -13.974 -19.437
41.162 -14.144 -19.427
41.392 -14.314 -19.417
41.622 -14.474 -19.417
41.862 -14.514 -19.417
42.102 -14.544 -19.407
42.342 -14.564 -19.407
42.572 -14.664 -19.407
42.812 -14.714 -19.407
43.052 -14.724 -19.407
43.292 -14.714 -19.407
43.522 -14.784 -19.397
43.762 -14.814 -19.397
44.002 -14.904 -19.397
44.232 -14.904 -19.397
44.482 -14.844 -19.397
44.722 -14.844 -19.397
44.962 -14.854 -19.397
45.192 -14.854 -19.397
45.432 -14.954 -19.387
45.662 -15.004 -19.387
45.902 -15.064 -19.387
46.142 -15.124 -19.387
46.372 -15.154 -19.387
46.612 -15.184 -19.377
46.852 -15.274 -19.377
47.092 -15.254 -19.377
47.332 -15.224 -19.377
47.562 -15.364 -19.377
47.802 -15.374 -19.377
48.052 -15.174 -19.377
48.292 -15.194 -19.377
48.532 -15.104 -19.387
48.772 -15.054 -19.387
49.012 -15.024 -19.387
49.262 -14.914 -19.397
49.502 -14.944 -19.387
49.742 -14.904 -19.397
49.982 -14.824 -19.397
50.232 -14.744 -19.397
50.472 -14.694 -19.407
50.712 -14.614 -19.407
50.962 -14.504 -19.407
51.212 -14.414 -19.417
51.452 -14.264 -19.417
51.712 -14.064 -19.427
51.992 -13.344 -19.227
51.982 -13.524 -19.457
54.822 -3.294 -19.907
54.592 -3.024 -19.927
55.052 -3.464 -19.907
55.282 -3.594 -19.897
55.512 -3.794 -19.887
55.742 -4.024 -19.877
55.982 -4.084 -19.877
56.212 -4.264 -19.867
56.442 -4.384 -19.857
56.692 -4.354 -19.867
56.942 -4.264 -19.867
57.192 -4.134 -19.877
57.442 -3.984 -19.877
57.702 -3.754 -19.887
57.952 -3.634 -19.897
58.202 -3.464 -19.907
58.492 -2.884 -19.687
58.482 -2.974 -19.927
-19.958 8.606 -20.697
-20.218 9.306 -20.727
-19.708 8.116 -20.667
-19.448 7.656 -20.647
-19.198 7.406 -20.637
-18.948 7.186 -20.627
-18.698 7.106 -20.627
-18.448 6.976 -20.617
-18.208 6.886 -20.617
-17.958 6.896 -20.617
-17.708 6.866 -20.617
-17.468 6.816 -20.617
-17.218 6.866 -20.617
-16.978 6.816 -20.617
-16.728 6.856 -20.617
-15.678 -11.084 -19.807
-15.918 -10.874 -19.817
-15.428 -11.464 -19.797
-15.188 -11.684 -19.787
-14.948 -11.864 -19.777
-14.698 -11.994 -19.767
-14.458 -12.024 -19.767
-14.218 -12.184 -19.757
-13.978 -12.114 -19.767
-13.738 -12.304 -19.757
-13.498 -12.264 -19.757
-13.258 -12.194 -19.757
-13.018 -12.264 -19.757
-12.778 -12.324 -19.757
-12.538 -12.294 -19.757
-12.298 -12.284 -19.757
-12.058 -12.224 -19.757
-11.818 -12.214 -19.757
-11.578 -12.104 -19.767
-11.338 -12.044 -19.767
-11.098 -12.034 -19.767
-10.858 -11.954 -19.767
-10.618 -11.884 -19.777
-10.378 -11.814 -19.777
-10.138 -11.704 -19.777
-9.898 -11.614 -19.787
-9.658 -11.544 -19.787
-9.418 -11.344 -19.797
-9.178 -11.224 -19.807
-8.948 -10.944 -19.817
-8.708 -10.604 -19.827
-8.468 -10.264 -19.847
-8.228 -9.994 -19.857
-7.988 -9.694 -19.867
31.742 8.766 -20.697
31.492 8.656 -20.697
31.972 8.196 -20.677
32.202 7.846 -20.657
32.442 7.626 -20.647
32.672 7.306 -20.637
32.912 7.106 -20.627
33.142 6.756 -20.607
33.382 6.616 -20.607
33.622 6.566 -20.597
33.862 6.446 -20.597
34.102 6.306 -20.587
34.352 6.276 -20.587
34.592 6.166 -20.587
34.832 6.086 -20.577
35.082 6.116 -20.577
35.322 6.106 -20.577
35.562 5.996 -20.577
35.812 6.006 -20.577
36.062 6.066 -20.577
36.322 6.336 -20.587
36.572 6.466 -20.597
36.822 6.556 -20.597
37.072 6.666 -20.607
37.322 6.766 -20.607
37.562 6.766 -20.607
37.812 6.756 -20.607
38.052 6.746 -20.607
38.302 6.766 -20.607
38.552 6.846 -20.617
38.802 7.036 -20.617
39.062 7.256 -20.627
40.712 -13.604 -19.697
40.472 -13.584 -19.697
40.952 -13.664 -19.687
41.172 -13.964 -19.677
41.402 -14.214 -19.667
41.632 -14.374 -19.657
41.862 -14.474 -19.657
42.102 -14.494 -19.657
42.342 -14.514 -19.647
42.582 -14.584 -19.647
42.812 -14.664 -19.647
43.052 -14.734 -19.637
43.282 -14.764 -19.637
43.532 -14.694 -19.647
43.762 -14.774 -19.637
44.002 -14.824 -19.637
44.242 -14.854 -19.637
44.482 -14.814 -19.637
44.722 -14.824 -19.637
44.962 -14.774 -19.637
45.202 -14.754 -19.637
45.432 -14.874 -19.637
45.662 -15.014 -19.627
45.912 -14.944 -19.627
46.152 -14.974 -19.627
46.382 -15.054 -19.627
46.622 -15.104 -19.627
46.852 -15.214 -19.617
47.092 -15.244 -19.617
47.322 -15.264 -19.617
47.562 -15.344 -19.617
47.802 -15.364 -19.617
48.032 -15.394 -19.607
48.272 -15.424 -19.607
48.512 -15.374 -19.607
48.762 -15.274 -19.617
49.002 -15.214 -19.617
49.252 -15.054 -19.627
49.492 -14.994 -19.627
49.742 -14.954 -19.627
49.982 -14.914 -19.637
50.222 -14.834 -19.637
50.462 -14.804 -19.637
50.712 -14.644 -19.647
50.962 -14.564 -19.647
51.202 -14.534 -19.647
51.452 -14.324 -19.657
51.702 -14.124 -19.667
51.962 -13.894 -19.677
54.832 -3.104 -20.167
54.602 -3.004 -20.167
55.062 -3.324 -20.147
55.292 -3.514 -20.147
55.522 -3.634 -20.137
55.762 -3.744 -20.137
55.992 -3.944 -20.127
56.222 -4.064 -20.117
56.452 -4.214 -20.107
56.692 -4.264 -20.107
56.932 -4.324 -20.107
57.182 -4.174 -20.117
57.442 -3.994 -20.117
57.692 -3.834 -20.127
57.952 -3.664 -20.137
58.202 -3.524 -20.137
58.472 -3.094 -20.157
-19.968 8.726 -20.947
-20.218 9.296 -20.967
-19.708 8.066 -20.917
-19.448 7.476 -20.887
-19.198 7.336 -20.887
-18.948 7.176 -20.877
-18.698 7.086 -20.867
-18.448 6.966 -20.867
-18.198 6.776 -20.857
-17.958 6.766 -20.857
-17.708 6.726 -20.857
-17.468 6.726 -20.857
-17.218 6.776 -20.857
-16.978 6.816 -20.857
-16.728 6.816 -20.857
-15.678 -11.024 -20.057
-15.918 -10.984 -20.057
-15.438 -11.294 -20.037
-15.188 -11.564 -20.027
-14.948 -11.694 -20.017
-14.708 -11.834 -20.017
-14.458 -12.014 -20.007
-14.218 -12.074 -20.007
-13.978 -12.124 -20.007
-13.738 -12.254 -19.997
-13.498 -12.224 -19.997
-13.258 -12.194 -19.997
-13.018 -12.224 -19.997
-12.778 -12.204 -19.997
-12.538 -12.234 -19.997
-12.298 -12.144 -19.997
-12.058 -12.194 -19.997
-11.818 -12.194 -19.997
-11.578 -12.144 -19.997
-11.338 -12.024 -20.007
-11.098 -12.034 -20.007
-10.858 -11.984 -20.007
-10.618 -11.914 -20.017
-10.378 -11.894 -20.017
-10.138 -11.734 -20.017
-9.898 -11.664 -20.027
-9.658 -11.634 -20.027
-9.418 -11.404 -20.037
-9.188 -11.154 -20.047
-8.948 -10.894 -20.057
-8.708 -10.654 -20.067
-8.468 -10.364 -20.087
-8.228 -10.034 -20.097
-7.988 -9.734 -20.107
31.972 8.296 -20.927
31.742 8.746 -20.947
32.202 7.946 -20.907
32.442 7.686 -20.897
32.672 7.286 -20.877
32.912 7.176 -20.877
33.152 6.876 -20.857
33.382 6.666 -20.847
33.622 6.576 -20.847
33.862 6.426 -20.837
34.102 6.306 -20.837
34.352 6.296 -20.837
34.592 6.256 -20.837
34.842 6.196 -20.827
35.082 6.146 -20.827
35.332 6.156 -20.827
35.572 6.026 -20.817
35.812 5.936 -20.817
36.062 6.156 -20.827
36.312 6.286 -20.837
36.562 6.406 -20.837
36.822 6.556 -20.847
37.072 6.676 -20.847
37.322 6.746 -20.857
37.562 6.736 -20.857
37.802 6.696 -20.847
38.052 6.696 -20.847
38.302 6.806 -20.857
38.552 6.806 -20.857
38.802 6.906 -20.857
39.062 7.256 -20.877
41.182 -13.824 -19.927
40.952 -13.574 -19.937
41.412 -14.064 -19.907
41.642 -14.144 -19.907
41.872 -14.314 -19.897
42.102 -14.474 -19.897
42.342 -14.564 -19.887
42.582 -14.604 -19.887
42.812 -14.604 -19.887
43.052 -14.614 -19.887
43.292 -14.714 -19.877
43.522 -14.784 -19.877
43.762 -14.794 -19.877
44.002 -14.744 -19.877
44.242 -14.844 -19.877
44.482 -14.794 -19.877
44.712 -14.924 -19.867
44.952 -14.924 -19.877
45.202 -14.794 -19.877
45.442 -14.774 -19.877
45.672 -14.874 -19.877
45.912 -14.944 -19.867
46.152 -14.904 -19.877
46.392 -14.904 -19.877
46.622 -15.124 -19.867
46.852 -15.124 -19.867
47.082 -15.294 -19.857
47.322 -15.314 -19.857
47.562 -15.404 -19.847
47.792 -15.424 -19.847
48.032 -15.494 -19.847
48.272 -15.514 -19.847
48.512 -15.504 -19.847
48.742 -15.544 -19.847
48.992 -15.474 -19.847
49.232 -15.334 -19.857
49.482 -15.164 -19.857
49.732 -15.104 -19.867
49.972 -15.014 -19.867
50.212 -14.944 -19.867
50.462 -14.924 -19.867
50.702 -14.884 -19.877
50.952 -14.714 -19.877
51.192 -14.644 -19.887
51.442 -14.474 -19.887
51.702 -14.234 -19.897
51.952 -14.024 -19.907
55.072 -3.134 -20.407
54.842 -3.004 -20.407
55.302 -3.374 -20.397
55.532 -3.554 -20.387
55.762 -3.694 -20.377
56.002 -3.754 -20.377
56.232 -3.914 -20.367
56.462 -4.094 -20.357
56.702 -4.164 -20.357
56.942 -4.184 -20.357
57.192 -4.124 -20.357
57.442 -4.034 -20.357
57.692 -3.924 -20.367
57.952 -3.694 -20.377
58.202 -3.484 -20.387
58.462 -3.314 -20.397
58.742 -2.714 -20.177
58.722 -3.004 -20.407
-19.968 8.796 -21.197
-20.228 9.396 -21.227
-19.708 8.206 -21.167
-19.448 7.536 -21.137
-19.198 7.306 -21.127
-18.948 7.146 -21.117
-18.698 7.036 -21.117
-18.448 6.986 -21.117
-18.198 6.866 -21.107
-17.958 6.806 -21.107
-17.708 6.726 -21.097
-17.468 6.776 -21.107
-17.218 6.756 -21.107
-16.968 6.736 -21.097
-16.728 6.716 -21.097
-15.678 -10.994 -20.297
-15.928 -10.684 -20.307
-15.438 -11.204 -20.287
-15.188 -11.504 -20.267
-14.948 -11.624 -20.267
-14.708 -11.774 -20.257
-14.458 -11.904 -20.257
-14.218 -12.034 -20.247
-13.978 -12.084 -20.247
-13.738 -12.244 -20.237
-13.498 -12.124 -20.247
-13.258 -12.234 -20.237
-13.018 -12.224 -20.237
-12.778 -12.234 -20.237
-12.538 -12.314 -20.237
-12.298 -12.194 -20.237
-12.058 -12.144 -20.247
-11.818 -12.144 -20.237
-11.578 -12.094 -20.247
-11.338 -12.124 -20.247
-11.098 -11.944 -20.247
-10.858 -11.994 -20.247
-10.618 -11.984 -20.247
-10.378 -11.774 -20.257
-10.138 -11.714 -20.257
-9.898 -11.704 -20.257
-9.658 -11.524 -20.267
-9.418 -11.304 -20.277
-9.188 -11.074 -20.287
-8.948 -10.854 -20.297
-8.708 -10.714 -20.307
-8.468 -10.304 -20.327
-8.228 -9.944 -20.347
-7.998 -9.674 -20.357
31.982 8.416 -21.177
31.752 8.956 -21.197
32.212 8.076 -21.157
32.452 7.906 -21.157
32.682 7.536 -21.137
32.922 7.266 -21.127
33.152 6.966 -21.107
33.392 6.796 -21.107
33.632 6.646 -21.097
33.872 6.496 -21.087
34.112 6.376 -21.087
34.352 6.356 -21.087
34.592 6.266 -21.077
34.832 6.176 -21.077
35.082 6.146 -21.077
35.322 6.116 -21.067
35.572 6.066 -21.067
35.812 6.116 -21.067
36.062 6.166 -21.077
36.312 6.296 -21.077
36.572 6.466 -21.087
36.812 6.526 -21.087
37.062 6.616 -21.097
37.312 6.706 -21.097
37.562 6.776 -21.097
37.802 6.686 -21.097
38.052 6.646 -21.097
38.302 6.756 -21.097
38.552 6.806 -21.107
38.802 6.916 -21.107
39.062 7.346 -21.127
39.322 7.636 -20.897
39.312 7.396 -21.127
41.402 -14.194 -20.147
41.182 -13.694 -20.167
41.652 -14.024 -20.157
41.892 -14.054 -20.147
42.112 -14.284 -20.137
42.352 -14.414 -20.137
42.582 -14.504 -20.127
42.812 -14.604 -20.127
43.062 -14.534 -20.127
43.302 -14.544 -20.127
43.532 -14.654 -20.127
43.772 -14.674 -20.127
44.012 -14.674 -20.127
44.242 -14.814 -20.117
44.482 -14.874 -20.117
44.712 -14.924 -20.107
44.952 -14.984 -20.107
45.192 -14.944 -20.107
45.432 -14.914 -20.107
45.672 -14.844 -20.117
45.912 -14.864 -20.117
46.152 -14.874 -20.117
46.392 -14.884 -20.117
46.622 -15.024 -20.107
46.852 -15.164 -20.097
47.092 -15.264 -20.097
47.322 -15.394 -20.087
47.552 -15.474 -20.087
47.792 -15.494 -20.087
48.032 -15.494 -20.087
48.272 -15.504 -20.087
48.512 -15.524 -20.087
48.752 -15.504 -20.087
48.982 -15.564 -20.077
49.222 -15.574 -20.077
49.472 -15.424 -20.087
49.712 -15.344 -20.087
49.962 -15.234 -20.097
50.202 -15.154 -20.097
50.452 -15.014 -20.107
50.692 -14.994 -20.107
50.932 -14.944 -20.107
51.182 -14.764 -20.117
51.432 -14.644 -20.127
51.692 -14.394 -20.137
51.942 -14.104 -20.147
55.092 -2.934 -20.657
54.832 -3.164 -20.647
55.312 -3.154 -20.647
55.542 -3.464 -20.627
55.772 -3.604 -20.627
56.002 -3.724 -20.617
56.242 -3.774 -20.617
56.472 -4.004 -20.607
56.712 -4.084 -20.607
56.952 -4.094 -20.597
57.192 -4.064 -20.607
57.442 -4.034 -20.607
57.692 -3.874 -20.607
57.952 -3.694 -20.617
58.202 -3.524 -20.627
58.462 -3.294 -20.637
58.712 -3.104 -20.647
-19.968 8.926 -21.447
-20.228 9.486 -21.477
-19.708 8.256 -21.417
-19.448 7.696 -21.387
-19.198 7.236 -21.367
-18.948 7.126 -21.367
-18.698 6.996 -21.357
-18.448 6.916 -21.357
-18.208 6.916 -21.357
-17.958 6.846 -21.347
-17.708 6.716 -21.347
-17.468 6.726 -21.347
-17.218 6.696 -21.347
-16.968 6.676 -21.347
-16.728 6.686 -21.347
-15.678 -10.994 -20.537
-15.938 -10.144 -20.577
-15.438 -11.154 -20.527
-15.188 -11.504 -20.507
-14.948 -11.714 -20.497
-14.698 -11.894 -20.497
-14.458 -11.944 -20.487
-14.218 -11.924 -20.497
-13.978 -12.074 -20.487
-13.738 -12.214 -20.477
-13.498 -12.154 -20.477
-13.258 -12.164 -20.477
-13.018 -12.134 -20.487
-12.778 -12.154 -20.477
-12.538 -12.114 -20.487
-12.298 -12.144 -20.487
-12.058 -12.154 -20.477
-11.818 -12.164 -20.477
-11.578 -12.044 -20.487
-11.338 -11.984 -20.487
-11.098 -11.934 -20.487
-10.858 -11.984 -20.487
-10.618 -11.944 -20.487
-10.378 -11.904 -20.497
-10.138 -11.804 -20.497
-9.898 -11.674 -20.507
-9.658 -11.464 -20.517
-9.418 -11.274 -20.527
-9.188 -11.044 -20.537
-8.948 -10.944 -20.537
-8.708 -10.664 -20.547
-8.468 -10.164 -20.577
-8.228 -9.874 -20.587
-7.988 -9.864 -20.587
32.212 8.206 -21.417
31.992 8.656 -21.437
32.452 7.906 -21.397
32.692 7.726 -21.387
32.922 7.346 -21.377
33.152 6.976 -21.357
33.392 6.836 -21.347
33.632 6.676 -21.347
33.872 6.516 -21.337
34.112 6.426 -21.327
34.352 6.416 -21.327
34.602 6.346 -21.327
34.832 6.156 -21.317
35.072 6.046 -21.317
35.322 6.036 -21.317
35.572 6.036 -21.317
35.812 6.076 -21.317
36.062 6.136 -21.317
36.312 6.246 -21.327
36.562 6.326 -21.327
36.812 6.476 -21.337
37.062 6.566 -21.337
37.312 6.696 -21.347
37.562 6.696 -21.347
37.802 6.696 -21.347
38.052 6.676 -21.337
38.292 6.676 -21.337
38.552 6.836 -21.347
38.802 6.976 -21.357
39.052 7.116 -21.357
39.312 7.346 -21.367
41.892 -13.884 -20.397
41.662 -13.814 -20.407
42.132 -13.964 -20.397
42.362 -14.224 -20.387
42.592 -14.334 -20.377
42.822 -14.434 -20.377
43.062 -14.464 -20.377
43.302 -14.544 -20.367
43.532 -14.604 -20.367
43.772 -14.604 -20.367
44.012 -14.574 -20.367
44.242 -14.724 -20.357
44.482 -14.804 -20.357
44.712 -14.934 -20.347
44.952 -14.914 -20.347
45.192 -15.004 -20.347
45.432 -14.944 -20.347
45.672 -14.874 -20.357
45.912 -14.864 -20.357
46.152 -14.864 -20.357
46.392 -14.824 -20.357
46.632 -14.924 -20.347
46.862 -14.954 -20.347
47.092 -15.214 -20.337
47.322 -15.394 -20.327
47.552 -15.464 -20.327
47.792 -15.454 -20.327
48.022 -15.554 -20.317
48.262 -15.674 -20.317
48.502 -15.594 -20.317
48.742 -15.624 -20.317
48.982 -15.644 -20.317
49.212 -15.654 -20.317
49.462 -15.594 -20.317
49.702 -15.494 -20.327
49.952 -15.414 -20.327
50.192 -15.264 -20.337
50.442 -15.154 -20.337
50.702 -14.864 -20.357
50.932 -14.924 -20.347
51.182 -14.874 -20.347
51.432 -14.704 -20.357
51.672 -14.564 -20.367
51.932 -14.244 -20.377
55.332 -2.934 -20.897
55.102 -2.774 -20.907
55.552 -3.264 -20.887
55.782 -3.374 -20.877
56.022 -3.554 -20.867
56.252 -3.724 -20.857
56.482 -3.884 -20.857
56.712 -4.054 -20.847
56.952 -4.054 -20.847
57.192 -4.104 -20.847
57.432 -4.074 -20.847
57.682 -4.014 -20.847
57.942 -3.744 -20.857
58.192 -3.634 -20.867
58.452 -3.364 -20.877
58.702 -3.254 -20.887
58.992 -2.614 -20.667
58.982 -2.744 -20.907
-19.968 9.006 -21.697
-20.228 9.356 -21.717
-19.708 8.456 -21.667
-19.458 8.066 -21.657
-19.198 7.436 -21.627
-18.948 7.156 -21.607
-18.698 7.026 -21.607
-18.448 6.926 -21.597
-18.198 6.816 -21.597
-17.958 6.756 -21.597
-17.708 6.636 -21.587
-17.458 6.686 -21.587
-17.218 6.776 -21.597
-16.968 6.786 -21.597
-16.728 6.716 -21.587
-16.478 6.766 -21.347
-16.478 6.846 -21.597
-15.438 -11.204 -20.767
-15.678 -10.984 -20.777
-15.188 -11.444 -20.757
-14.948 -11.634 -20.747
-14.708 -11.824 -20.737
-14.458 -11.884 -20.737
-14.218 -11.964 -20.727
-13.978 -12.034 -20.727
-13.738 -12.134 -20.727
-13.498 -12.074 -20.727
-13.258 -12.094 -20.727
-13.018 -12.104 -20.727
-12.778 -12.084 -20.727
-12.538 -12.074 -20.727
-12.298 -12.124 -20.727
-12.058 -12.044 -20.727
-11.818 -11.984 -20.727
-11.578 -11.954 -20.727
-11.338 -12.024 -20.727
-11.098 -11.964 -20.727
-10.858 -11.924 -20.737
-10.618 -11.944 -20.727
-10.378 -11.864 -20.737
-10.138 -11.704 -20.747
-9.898 -11.624 -20.747
-9.658 -11.464 -20.757
-9.418 -11.244 -20.767
-9.188 -11.054 -20.777
-8.948 -10.714 -20.787
-8.708 -10.494 -20.797
-8.468 -10.164 -20.817
-8.228 -9.904 -20.827
-7.988 -9.794 -20.827
32.222 8.336 -21.667
32.002 8.896 -21.687
32.452 8.056 -21.647
32.692 7.746 -21.637
32.922 7.516 -21.627
33.152 7.056 -21.607
33.392 6.886 -21.597
33.632 6.766 -21.597
33.872 6.586 -21.587
34.112 6.396 -21.577
34.352 6.316 -21.567
34.592 6.266 -21.567
34.842 6.246 -21.567
35.082 6.066 -21.557
35.322 6.106 -21.557
35.572 6.096 -21.557
35.812 6.086 -21.557
36.062 6.096 -21.557
36.312 6.276 -21.567
36.562 6.346 -21.577
36.812 6.496 -21.577
37.062 6.636 -21.587
37.312 6.666 -21.587
37.562 6.756 -21.587
37.802 6.686 -21.587
38.052 6.676 -21.587
38.302 6.736 -21.587
38.542 6.736 -21.587
38.792 6.836 -21.597
39.052 7.066 -21.607
39.312 7.266 -21.617
42.132 -13.994 -20.637
41.892 -14.014 -20.637
42.372 -13.954 -20.637
42.602 -14.054 -20.627
42.832 -14.254 -20.617
43.072 -14.284 -20.617
43.312 -14.344 -20.617
43.542 -14.454 -20.617
43.782 -14.444 -20.617
44.022 -14.484 -20.607
44.252 -14.634 -20.607
44.482 -14.734 -20.597
44.722 -14.824 -20.597
44.952 -14.884 -20.587
45.192 -14.874 -20.597
45.432 -14.964 -20.587
45.672 -14.984 -20.587
45.912 -14.914 -20.587
46.152 -14.864 -20.597
46.392 -14.834 -20.597
46.632 -14.794 -20.597
46.872 -14.914 -20.587
47.092 -15.114 -20.577
47.322 -15.324 -20.567
47.552 -15.474 -20.567
47.792 -15.564 -20.557
48.022 -15.624 -20.557
48.262 -15.624 -20.557
48.492 -15.734 -20.557
48.732 -15.764 -20.547
48.972 -15.764 -20.547
49.212 -15.674 -20.557
49.452 -15.684 -20.557
49.692 -15.734 -20.547
49.942 -15.534 -20.557
50.192 -15.414 -20.567
50.442 -15.214 -20.577
50.692 -15.014 -20.587
50.932 -14.924 -20.587
51.182 -14.804 -20.597
51.432 -14.674 -20.597
51.682 -14.554 -20.607
51.942 -14.204 -20.617
55.342 -2.694 -21.147
55.112 -2.534 -21.157
55.572 -2.994 -21.137
55.792 -3.224 -21.127
56.032 -3.324 -21.127
56.262 -3.484 -21.117
56.492 -3.704 -21.107
56.722 -3.884 -21.097
56.952 -4.034 -21.087
57.192 -4.054 -21.087
57.442 -4.044 -21.087
57.682 -3.954 -21.097
57.942 -3.764 -21.097
58.192 -3.714 -21.107
58.452 -3.464 -21.117
58.712 -3.134 -21.127
58.972 -2.874 -21.147
59.252 -2.464 -20.917
59.242 -2.504 -21.157
-19.708 8.436 -21.917
-19.968 9.006 -21.947
-19.458 8.036 -21.897
-19.198 7.526 -21.877
-18.948 7.066 -21.857
-18.698 6.946 -21.847
-18.448 6.806 -21.837
-18.198 6.696 -21.837
-17.958 6.696 -21.837
-17.708 6.686 -21.837
-17.458 6.716 -21.837
-17.218 6.676 -21.837
-16.968 6.706 -21.837
-16.728 6.676 -21.837
-16.478 6.676 -21.837
-15.438 -11.104 -21.007
-15.678 -10.864 -21.017
-15.188 -11.334 -20.997
-14.948 -11.484 -20.997
-14.708 -11.634 -20.987
-14.468 -11.724 -20.987
-14.218 -11.904 -20.977
-13.978 -12.004 -20.967
-13.738 -12.074 -20.967
-13.498 -12.144 -20.967
-13.258 -12.034 -20.967
-13.018 -12.054 -20.967
-12.778 -12.134 -20.967
-12.538 -12.124 -20.967
-12.298 -12.084 -20.967
-12.058 -12.094 -20.967
-11.818 -12.064 -20.967
-11.578 -12.054 -20.967
-11.338 -11.994 -20.967
-11.098 -12.094 -20.967
-10.858 -12.054 -20.967
-10.618 -11.954 -20.967
-10.378 -11.884 -20.977
-10.138 -11.794 -20.977
-9.898 -11.654 -20.987
-9.658 -11.494 -20.997
-9.418 -11.324 -20.997
-9.188 -10.984 -21.017
-8.948 -10.744 -21.027
-8.708 -10.474 -21.037
-8.468 -10.214 -21.057
-8.228 -9.904 -21.067
-7.998 -9.614 -21.077
32.222 8.396 -21.917
32.002 8.986 -21.937
32.462 8.166 -21.907
32.692 7.816 -21.887
32.932 7.566 -21.877
33.162 7.176 -21.857
33.392 6.906 -21.847
33.632 6.746 -21.837
33.872 6.556 -21.827
34.112 6.406 -21.817
34.352 6.296 -21.817
34.592 6.236 -21.817
34.842 6.206 -21.807
35.082 6.136 -21.807
35.322 6.086 -21.807
35.572 6.096 -21.807
35.812 6.086 -21.807
36.062 6.126 -21.807
36.312 6.206 -21.807
36.552 6.206 -21.807
36.802 6.236 -21.817
37.062 6.466 -21.827
37.312 6.596 -21.827
37.562 6.706 -21.837
37.802 6.696 -21.837
38.052 6.646 -21.827
38.292 6.676 -21.837
38.542 6.726 -21.837
38.792 6.746 -21.837
39.042 6.926 -21.847
39.302 7.216 -21.857
42.372 -13.894 -20.877
42.132 -14.004 -20.877
42.612 -13.964 -20.877
42.842 -14.164 -20.867
43.072 -14.244 -20.857
43.312 -14.314 -20.857
43.542 -14.414 -20.857
43.772 -14.574 -20.847
44.022 -14.514 -20.847
44.242 -14.714 -20.837
44.492 -14.694 -20.837
44.722 -14.854 -20.837
44.962 -14.844 -20.837
45.192 -14.874 -20.827
45.432 -14.914 -20.827
45.672 -14.974 -20.827
45.912 -14.964 -20.827
46.142 -14.994 -20.827
46.392 -14.954 -20.827
46.632 -14.844 -20.837
46.872 -14.864 -20.827
47.102 -14.964 -20.827
47.332 -15.104 -20.817
47.562 -15.404 -20.807
47.782 -15.584 -20.797
48.012 -15.734 -20.787
48.252 -15.724 -20.787
48.492 -15.804 -20.787
48.722 -15.874 -20.787
48.962 -15.834 -20.787
49.212 -15.744 -20.787
49.452 -15.744 -20.787
49.692 -15.654 -20.797
49.932 -15.634 -20.797
50.182 -15.524 -20.797
50.422 -15.434 -20.807
50.682 -15.224 -20.817
50.922 -15.154 -20.817
51.162 -15.064 -20.817
51.422 -14.884 -20.827
51.662 -14.724 -20.837
51.932 -14.284 -20.857
52.202 -13.804 -20.637
52.202 -13.874 -20.877
55.592 -2.694 -21.397
55.352 -2.654 -21.397
55.812 -2.944 -21.387
56.032 -3.264 -21.367
56.262 -3.484 -21.357
56.502 -3.584 -21.357
56.732 -3.664 -21.347
56.962 -3.934 -21.337
57.202 -3.994 -21.337
57.442 -3.954 -21.337
57.692 -3.884 -21.337
57.942 -3.784 -21.347
58.192 -3.664 -21.347
58.442 -3.524 -21.357
58.702 -3.254 -21.367
58.962 -3.034 -21.377
59.222 -2.894 -21.387
59.532 -1.914 -21.187
59.492 -2.474 -21.407
-19.708 8.406 -22.157
-19.968 9.046 -22.187
-19.458 7.906 -22.137
-19.198 7.596 -22.127
-18.948 7.216 -22.107
-18.698 7.006 -22.097
-18.448 6.816 -22.087
-18.198 6.806 -22.087
-17.958 6.676 -22.077
-17.708 6.636 -22.077
-17.458 6.666 -22.077
-17.218 6.646 -22.077
-16.968 6.616 -22.077
-16.728 6.626 -22.077
-16.478 6.606 -22.077
-15.438 -11.014 -21.257
-15.678 -10.854 -21.267
-15.198 -11.234 -21.247
-14.948 -11.484 -21.237
-14.708 -11.614 -21.227
-14.468 -11.724 -21.227
-14.228 -11.804 -21.217
-13.978 -11.834 -21.217
-13.738 -12.004 -21.207
-13.498 -12.054 -21.207
-13.258 -12.014 -21.207
-13.018 -11.994 -21.207
-12.778 -12.134 -21.207
-12.538 -12.114 -21.207
-12.298 -12.154 -21.207
-12.058 -12.124 -21.207
-11.818 -12.124 -21.207
-11.578 -12.124 -21.207
-11.338 -12.124 -21.207
-11.098 -12.054 -21.207
-10.858 -12.004 -21.207
-10.618 -11.924 -21.217
-10.378 -11.814 -21.217
-10.138 -11.774 -21.217
-9.898 -11.594 -21.227
-9.658 -11.484 -21.237
-9.428 -11.194 -21.247
-9.188 -10.944 -21.257
-8.948 -10.724 -21.267
-8.708 -10.464 -21.277
-8.468 -10.214 -21.297
-8.228 -9.884 -21.307
-7.998 -9.394 -21.327
32.232 8.686 -22.177
32.022 9.446 -22.207
32.462 8.286 -22.157
32.702 7.986 -22.137
32.932 7.646 -22.127
33.162 7.256 -22.107
33.402 7.036 -22.097
33.632 6.776 -22.087
33.872 6.636 -22.077
34.112 6.526 -22.077
34.352 6.396 -22.067
34.592 6.246 -22.057
34.842 6.276 -22.057
35.082 6.096 -22.047
35.322 6.056 -22.047
35.572 6.066 -22.047
35.812 6.066 -22.047
36.062 6.066 -22.047
36.302 6.046 -22.047
36.552 6.146 -22.057
36.802 6.206 -22.057
37.052 6.326 -22.067
37.302 6.496 -22.067
37.562 6.616 -22.077
37.802 6.706 -22.077
38.052 6.706 -22.077
38.292 6.666 -22.077
38.542 6.696 -22.077
38.792 6.786 -22.087
39.042 6.886 -22.087
39.302 7.106 -22.097
42.842 -14.184 -21.107
42.612 -13.864 -21.117
43.072 -14.304 -21.097
43.312 -14.314 -21.097
43.552 -14.314 -21.097
43.782 -14.474 -21.087
44.022 -14.514 -21.087
44.252 -14.644 -21.087
44.482 -14.754 -21.077
44.722 -14.864 -21.067
44.952 -14.894 -21.067
45.192 -14.854 -21.067
45.432 -14.914 -21.067
45.672 -14.944 -21.067
45.912 -14.944 -21.067
46.152 -14.954 -21.067
46.392 -14.894 -21.067
46.632 -14.914 -21.067
46.872 -14.824 -21.077
47.102 -14.954 -21.067
47.342 -14.934 -21.067
47.572 -15.164 -21.057
47.802 -15.384 -21.047
48.022 -15.674 -21.037
48.252 -15.724 -21.027
48.482 -15.874 -21.027
48.722 -15.934 -21.017
48.962 -15.904 -21.027
49.212 -15.794 -21.027
49.452 -15.704 -21.027
49.692 -15.674 -21.037
49.932 -15.654 -21.037
50.182 -15.554 -21.037
50.422 -15.494 -21.037
50.672 -15.274 -21.047
50.912 -15.224 -21.057
51.162 -15.094 -21.057
51.412 -14.944 -21.067
51.662 -14.814 -21.077
51.922 -14.504 -21.087
52.202 -13.824 -21.117
55.822 -2.794 -21.637
55.592 -2.654 -21.637
56.052 -3.084 -21.617
56.272 -3.304 -21.607
56.502 -3.504 -21.597
56.742 -3.554 -21.597
56.972 -3.714 -21.587
57.212 -3.844 -21.587
57.452 -3.904 -21.577
57.692 -3.924 -21.577
57.942 -3.824 -21.587
58.192 -3.674 -21.587
58.452 -3.444 -21.597
58.702 -3.324 -21.607
58.962 -3.114 -21.617
59.212 -2.984 -21.627
59.482 -2.534 -21.647
59.772 -1.964 -21.427
59.752 -2.274 -21.657
-19.718 8.626 -22.417
-19.968 9.006 -22.437
-19.458 7.886 -22.387
-19.198 7.576 -22.367
-18.948 7.196 -22.347
-18.698 7.076 -22.347
-18.448 6.926 -22.337
-18.198 6.736 -22.327
-17.948 6.656 -22.327
-17.708 6.646 -22.327
-17.458 6.456 -22.317
-17.218 6.596 -22.327
-16.968 6.556 -22.317
-16.728 6.576 -22.317
-16.478 6.586 -22.327
-15.438 -10.934 -21.497
-15.688 -10.634 -21.517
-15.198 -11.184 -21.487
-14.948 -11.414 -21.477
-14.708 -11.594 -21.467
-14.468 -11.694 -21.467
-14.218 -11.834 -21.457
-13.978 -11.864 -21.457
-13.738 -11.964 -21.447
-13.498 -11.974 -21.447
-13.258 -12.014 -21.447
-13.018 -12.024 -21.447
-12.778 -12.164 -21.447
-12.538 -12.124 -21.447
-12.298 -12.134 -21.447
-12.058 -12.124 -21.447
-11.818 -12.164 -21.447
-11.578 -12.174 -21.437
-11.338 -12.064 -21.447
-11.098 -12.044 -21.447
-10.858 -11.984 -21.447
-10.618 -11.894 -21.457
-10.378 -11.874 -21.457
-10.138 -11.864 -21.457
-9.898 -11.624 -21.467
-9.658 -11.394 -21.477
-9.428 -11.144 -21.487
-9.188 -10.874 -21.507
-8.948 -10.654 -21.517
-8.708 -10.364 -21.527
-8.468 -10.084 -21.537
-8.238 -9.774 -21.557
-7.998 -9.564 -21.567
32.472 8.436 -22.407
32.242 8.986 -22.437
32.702 7.996 -22.387
32.932 7.686 -22.377
33.162 7.346 -22.357
33.402 7.136 -22.347
33.632 6.806 -22.327
33.872 6.626 -22.327
34.112 6.536 -22.317
34.362 6.506 -22.317
34.592 6.306 -22.307
34.842 6.266 -22.307
35.082 6.156 -22.297
35.322 6.066 -22.297
35.562 6.026 -22.297
35.812 5.936 -22.287
36.062 6.026 -22.297
36.302 6.066 -22.297
36.552 6.106 -22.297
36.802 6.146 -22.297
37.052 6.376 -22.307
37.302 6.506 -22.317
37.552 6.516 -22.317
37.802 6.626 -22.317
38.052 6.696 -22.327
38.292 6.596 -22.317
38.542 6.616 -22.317
38.792 6.666 -22.327
39.042 6.806 -22.327
39.302 7.066 -22.337
39.562 7.386 -22.107
39.562 7.406 -22.357
43.062 -14.514 -21.327
42.822 -14.414 -21.337
43.302 -14.484 -21.327
43.542 -14.414 -21.337
43.782 -14.384 -21.337
44.022 -14.454 -21.327
44.242 -14.714 -21.317
44.482 -14.704 -21.317
44.722 -14.824 -21.317
44.952 -14.914 -21.307
45.182 -15.024 -21.307
45.432 -14.994 -21.307
45.672 -14.974 -21.307
45.912 -14.894 -21.307
46.142 -14.984 -21.307
46.392 -14.944 -21.307
46.622 -14.984 -21.307
46.862 -14.934 -21.307
47.102 -14.954 -21.307
47.342 -14.944 -21.307
47.582 -14.974 -21.307
47.812 -15.144 -21.297
48.032 -15.414 -21.287
48.262 -15.664 -21.277
48.492 -15.734 -21.267
48.732 -15.834 -21.267
48.962 -15.894 -21.257
49.202 -15.824 -21.267
49.452 -15.774 -21.267
49.692 -15.684 -21.267
49.932 -15.704 -21.267
50.172 -15.634 -21.277
50.422 -15.494 -21.277
50.662 -15.404 -21.287
50.912 -15.254 -21.287
51.162 -15.194 -21.297
51.402 -15.044 -21.297
51.662 -14.834 -21.307
51.922 -14.524 -21.327
52.192 -13.954 -21.347
55.842 -2.614 -21.887
55.612 -2.344 -21.897
56.062 -2.824 -21.877
56.292 -3.004 -21.867
56.522 -3.304 -21.847
56.752 -3.504 -21.837
56.982 -3.594 -21.837
57.212 -3.764 -21.827
57.452 -3.894 -21.827
57.692 -3.894 -21.827
57.932 -3.864 -21.827
58.192 -3.724 -21.827
58.442 -3.494 -21.837
58.702 -3.314 -21.847
58.952 -3.184 -21.857
59.212 -2.974 -21.867
59.482 -2.634 -21.877
59.732 -2.464 -21.887
60.022 -1.864 -21.677
60.012 -2.014 -21.907
-19.718 8.716 -22.667
-19.968 9.086 -22.687
-19.458 7.896 -22.627
-19.198 7.536 -22.617
-18.948 7.296 -22.597
-18.698 7.136 -22.597
-18.448 6.846 -22.577
-18.198 6.726 -22.577
-17.958 6.676 -22.577
-17.708 6.596 -22.567
-17.458 6.516 -22.567
-17.208 6.446 -22.557
-16.968 6.416 -22.557
-16.718 6.456 -22.557
-16.478 6.576 -22.567
-15.438 -10.764 -21.747
-15.688 -10.434 -21.767
-15.198 -11.104 -21.737
-14.948 -11.314 -21.727
-14.708 -11.454 -21.717
-14.468 -11.604 -21.707
-14.228 -11.794 -21.697
-13.988 -11.694 -21.707
-13.738 -11.814 -21.697
-13.498 -11.814 -21.697
-13.258 -11.994 -21.687
-13.018 -12.024 -21.687
-12.778 -12.064 -21.687
-12.538 -12.084 -21.687
-12.298 -12.064 -21.687
-12.058 -12.084 -21.687
-11.818 -12.084 -21.687
-11.578 -12.114 -21.687
-11.338 -12.054 -21.687
-11.098 -12.024 -21.687
-10.858 -12.004 -21.687
-10.618 -11.894 -21.697
-10.378 -11.924 -21.697
-10.138 -11.794 -21.697
-9.898 -11.544 -21.707
-9.658 -11.324 -21.717
-9.428 -11.044 -21.737
-9.188 -10.814 -21.747
-8.948 -10.604 -21.757
-8.708 -10.414 -21.767
-8.468 -9.984 -21.787
-8.238 -9.594 -21.807
32.472 8.576 -22.657
32.242 8.976 -22.677
32.702 8.026 -22.637
32.932 7.746 -22.617
33.162 7.356 -22.607
33.402 7.106 -22.587
33.642 6.876 -22.577
33.872 6.626 -22.567
34.112 6.466 -22.557
34.352 6.346 -22.557
34.592 6.196 -22.547
34.832 6.166 -22.547
35.082 6.106 -22.547
35.322 6.046 -22.537
35.572 6.036 -22.537
35.812 5.956 -22.537
36.062 6.036 -22.537
36.302 6.056 -22.537
36.552 6.136 -22.547
36.802 6.116 -22.547
37.052 6.256 -22.547
37.302 6.386 -22.557
37.552 6.526 -22.567
37.802 6.646 -22.567
38.052 6.666 -22.567
38.292 6.586 -22.567
38.542 6.606 -22.567
38.792 6.706 -22.567
39.042 6.816 -22.577
39.292 7.036 -22.587
39.552 7.346 -22.597
43.292 -14.614 -21.567
43.032 -14.984 -21.547
43.542 -14.484 -21.567
43.792 -14.344 -21.577
44.012 -14.564 -21.567
44.252 -14.654 -21.557
44.482 -14.704 -21.557
44.722 -14.804 -21.557
44.952 -14.854 -21.547
45.192 -14.954 -21.547
45.422 -15.034 -21.547
45.672 -14.924 -21.547
45.912 -14.934 -21.547
46.142 -15.024 -21.547
46.382 -15.024 -21.547
46.622 -15.014 -21.547
46.862 -14.974 -21.547
47.102 -14.964 -21.547
47.342 -14.944 -21.547
47.582 -15.004 -21.547
47.822 -15.014 -21.547
48.052 -15.204 -21.537
48.272 -15.514 -21.517
48.492 -15.764 -21.507
48.732 -15.824 -21.507
48.962 -15.844 -21.507
49.202 -15.824 -21.507
49.442 -15.874 -21.497
49.692 -15.764 -21.507
49.932 -15.754 -21.507
50.172 -15.734 -21.507
50.412 -15.634 -21.517
50.662 -15.484 -21.517
50.912 -15.334 -21.527
51.152 -15.224 -21.537
51.402 -15.164 -21.537
51.652 -14.974 -21.547
51.912 -14.574 -21.567
52.182 -14.194 -21.577
56.082 -2.584 -22.127
55.842 -2.494 -22.137
56.302 -2.884 -22.117
56.542 -3.024 -22.107
56.752 -3.374 -22.087
56.992 -3.484 -22.087
57.222 -3.624 -22.077
57.462 -3.764 -22.067
57.702 -3.784 -22.067
57.942 -3.754 -22.077
58.192 -3.674 -22.077
58.442 -3.534 -22.087
58.702 -3.374 -22.087
58.962 -3.134 -22.097
59.212 -2.944 -22.107
59.462 -2.824 -22.117
59.732 -2.514 -22.127
59.992 -2.214 -22.147
-19.718 8.576 -22.907
-19.968 8.896 -22.927
-19.448 7.766 -22.867
-19.198 7.556 -22.857
-18.948 7.266 -22.847
-18.698 7.226 -22.847
-18.448 6.836 -22.827
-18.198 6.736 -22.817
-17.958 6.726 -22.817
-17.708 6.596 -22.817
-17.458 6.496 -22.807
-17.208 6.476 -22.807
-16.968 6.446 -22.807
-16.718 6.396 -22.807
-16.478 6.506 -22.807
-15.448 -10.644 -21.997
-15.688 -10.264 -22.017
-15.198 -11.014 -21.977
-14.948 -11.284 -21.967
-14.708 -11.384 -21.957
-14.468 -11.554 -21.947
-14.228 -11.724 -21.947
-13.988 -11.734 -21.947
-13.738 -11.804 -21.937
-13.498 -11.914 -21.937
-13.258 -12.044 -21.927
-13.018 -12.114 -21.927
-12.778 -12.054 -21.927
-12.538 -12.034 -21.927
-12.298 -12.104 -21.927
-12.058 -12.034 -21.927
-11.818 -12.004 -21.927
-11.578 -11.914 -21.937
-11.338 -12.044 -21.927
-11.098 -12.084 -21.927
-10.858 -12.014 -21.927
-10.618 -11.854 -21.937
-10.378 -11.784 -21.937
-10.138 -11.604 -21.947
-9.898 -11.454 -21.957
-9.658 -11.334 -21.957
-9.428 -11.044 -21.977
-9.188 -10.794 -21.987
-8.948 -10.524 -21.997
-8.708 -10.214 -22.017
-8.468 -9.984 -22.027
-8.238 -9.524 -22.047
32.482 8.736 -22.917
32.262 9.246 -22.937
32.702 8.096 -22.887
32.942 7.796 -22.867
33.172 7.426 -22.847
33.402 7.056 -22.837
33.642 6.856 -22.827
33.872 6.626 -22.817
34.112 6.436 -22.807
34.352 6.296 -22.797
34.592 6.236 -22.797
34.842 6.206 -22.797
35.082 6.066 -22.787
35.322 5.976 -22.787
35.562 5.996 -22.787
35.812 5.926 -22.777
36.052 5.966 -22.777
36.302 6.016 -22.787
36.542 5.986 -22.787
36.792 6.066 -22.787
37.052 6.196 -22.797
37.292 6.296 -22.797
37.552 6.436 -22.807
37.802 6.566 -22.807
38.052 6.626 -22.817
38.292 6.626 -22.817
38.532 6.536 -22.807
38.792 6.666 -22.817
39.042 6.766 -22.817
39.292 6.966 -22.827
39.542 7.086 -22.837
43.782 -14.404 -21.807
43.542 -14.424 -21.807
44.022 -14.444 -21.807
44.252 -14.634 -21.797
44.492 -14.644 -21.797
44.722 -14.704 -21.797
44.962 -14.744 -21.797
45.192 -14.854 -21.787
45.432 -14.954 -21.787
45.672 -14.984 -21.787
45.912 -14.924 -21.787
46.142 -15.024 -21.777
46.382 -14.974 -21.787
46.622 -14.954 -21.787
46.862 -14.954 -21.787
47.102 -14.974 -21.787
47.352 -14.844 -21.787
47.592 -14.864 -21.787
47.822 -14.924 -21.787
48.052 -15.044 -21.777
48.272 -15.434 -21.757
48.492 -15.794 -21.747
48.722 -15.924 -21.737
48.962 -15.974 -21.737
49.192 -15.974 -21.737
49.432 -15.994 -21.737
49.682 -15.924 -21.737
49.922 -15.844 -21.737
50.162 -15.774 -21.747
50.412 -15.694 -21.747
50.652 -15.564 -21.757
50.902 -15.454 -21.757
51.152 -15.344 -21.767
51.392 -15.254 -21.767
51.642 -15.074 -21.777
51.892 -14.884 -21.787
52.172 -14.354 -21.807
56.312 -2.724 -22.367
56.092 -2.444 -22.377
56.542 -2.904 -22.357
56.772 -3.134 -22.347
57.012 -3.234 -22.337
57.232 -3.454 -22.327
57.462 -3.704 -22.317
57.702 -3.724 -22.317
57.942 -3.694 -22.317
58.192 -3.694 -22.317
58.442 -3.504 -22.327
58.692 -3.394 -22.327
58.952 -3.174 -22.347
59.202 -3.094 -22.347
59.462 -2.834 -22.357
59.722 -2.694 -22.367
59.982 -2.434 -22.377
60.252 -1.954 -22.157
60.242 -2.184 -22.387
60.532 -1.564 -22.177
60.502 -1.854 -22.407
-19.458 7.936 -23.127
-19.718 8.746 -23.167
-19.198 7.466 -23.097
-18.948 7.186 -23.087
-18.698 7.176 -23.087
-18.448 6.906 -23.077
-18.198 6.786 -23.067
-17.948 6.616 -23.057
-17.708 6.576 -23.057
-17.458 6.586 -23.057
-17.218 6.556 -23.057
-16.968 6.416 -23.047
-16.718 6.416 -23.047
-16.478 6.456 -23.057
-16.218 5.896 -22.777
-16.228 6.526 -23.057
-15.198 -10.974 -22.217
-15.448 -10.554 -22.237
-14.958 -11.184 -22.207
-14.708 -11.354 -22.197
-14.468 -11.454 -22.197
-14.228 -11.634 -22.187
-13.988 -11.694 -22.187
-13.738 -11.844 -22.177
-13.498 -11.924 -22.177
-13.258 -12.014 -22.167
-13.018 -12.064 -22.167
-12.778 -12.064 -22.167
-12.538 -12.084 -22.167
-12.298 -12.094 -22.167
-12.058 -12.134 -22.167
-11.818 -12.104 -22.167
-11.578 -11.974 -22.167
-11.338 -12.084 -22.167
-11.098 -12.004 -22.167
-10.858 -11.964 -22.177
-10.618 -11.914 -22.177
-10.378 -11.794 -22.177
-10.138 -11.684 -22.187
-9.898 -11.464 -22.197
-9.668 -11.244 -22.207
-9.428 -10.974 -22.217
-9.188 -10.704 -22.237
-8.948 -10.494 -22.247
-8.708 -10.254 -22.257
-8.478 -9.814 -22.277
-8.238 -9.554 -22.287
-7.998 -9.104 -22.067
-7.998 -9.314 -22.297
32.492 8.856 -23.167
32.252 9.176 -23.177
32.702 8.156 -23.137
32.942 7.906 -23.117
33.172 7.506 -23.097
33.402 7.126 -23.087
33.642 6.906 -23.077
33.872 6.626 -23.057
34.112 6.426 -23.047
34.352 6.266 -23.037
34.592 6.216 -23.037
34.832 6.126 -23.037
35.072 6.046 -23.027
35.322 6.056 -23.027
35.562 5.946 -23.027
35.802 5.906 -23.027
36.052 5.936 -23.027
36.302 5.966 -23.027
36.552 6.046 -23.027
36.792 5.996 -23.027
37.042 6.086 -23.037
37.292 6.196 -23.037
37.542 6.326 -23.047
37.792 6.466 -23.047
38.042 6.556 -23.057
38.292 6.516 -23.057
38.532 6.536 -23.057
38.782 6.606 -23.057
39.032 6.676 -23.057
39.292 6.886 -23.067
39.542 7.086 -23.077
39.802 7.376 -22.847
39.812 7.616 -23.107
44.022 -14.424 -22.047
43.782 -14.454 -22.047
44.262 -14.514 -22.047
44.492 -14.514 -22.047
44.722 -14.714 -22.037
44.962 -14.774 -22.037
45.202 -14.834 -22.027
45.432 -14.894 -22.027
45.672 -14.894 -22.027
45.912 -14.914 -22.027
46.152 -14.864 -22.027
46.382 -14.994 -22.027
46.622 -14.964 -22.027
46.862 -14.984 -22.027
47.102 -14.944 -22.027
47.342 -14.994 -22.027
47.582 -14.994 -22.027
47.822 -14.954 -22.027
48.062 -14.994 -22.027
48.282 -15.224 -22.007
48.512 -15.494 -21.997
48.732 -15.724 -21.987
48.952 -15.984 -21.977
49.192 -15.984 -21.977
49.432 -16.054 -21.967
49.672 -15.944 -21.977
49.922 -15.864 -21.977
50.162 -15.884 -21.977
50.412 -15.704 -21.987
50.652 -15.614 -21.987
50.892 -15.584 -21.997
51.142 -15.474 -21.997
51.392 -15.264 -22.007
51.642 -15.064 -22.017
51.892 -14.874 -22.027
52.172 -14.344 -22.057
56.562 -2.714 -22.607
56.332 -2.464 -22.617
56.792 -2.924 -22.597
57.022 -3.074 -22.587
57.252 -3.164 -22.587
57.482 -3.384 -22.577
57.712 -3.544 -22.567
57.952 -3.604 -22.567
58.192 -3.604 -22.567
58.452 -3.474 -22.567
58.702 -3.354 -22.577
58.952 -3.234 -22.587
59.202 -3.084 -22.587
59.462 -2.924 -22.597
59.712 -2.744 -22.607
59.972 -2.564 -22.617
60.232 -2.294 -22.627
60.502 -1.914 -22.647
-19.458 8.136 -23.377
-19.718 8.676 -23.407
-19.198 7.556 -23.347
-18.948 7.146 -23.327
-18.698 7.096 -23.327
-18.448 6.926 -23.317
-18.198 6.686 -23.307
-17.948 6.546 -23.307
-17.708 6.476 -23.297
-17.458 6.476 -23.297
-17.208 6.466 -23.297
-16.968 6.356 -23.297
-16.718 6.396 -23.297
-16.478 6.476 -23.297
-16.228 6.446 -23.297
-15.198 -10.864 -22.467
-15.448 -10.534 -22.477
-14.958 -11.174 -22.447
-14.708 -11.304 -22.447
-14.468 -11.424 -22.437
-14.228 -11.594 -22.427
-13.988 -11.734 -22.427
-13.738 -11.804 -22.417
-13.498 -11.904 -22.417
-13.258 -12.004 -22.407
-13.018 -12.034 -22.407
-12.778 -12.034 -22.407
-12.538 -12.024 -22.407
-12.298 -12.094 -22.407
-12.058 -12.094 -22.407
-11.818 -12.064 -22.407
-11.578 -12.064 -22.407
-11.338 -12.104 -22.407
-11.098 -12.074 -22.407
-10.858 -11.964 -22.417
-10.618 -11.884 -22.417
-10.378 -11.834 -22.417
-10.138 -11.664 -22.427
-9.898 -11.394 -22.437
-9.668 -11.184 -22.447
-9.428 -10.984 -22.457
-9.188 -10.714 -22.477
-8.948 -10.494 -22.487
-8.708 -10.274 -22.497
-8.468 -9.984 -22.507
-8.238 -9.614 -22.527
-7.998 -9.424 -22.537
32.712 8.326 -23.387
32.492 9.046 -23.417
32.942 7.976 -23.367
33.172 7.586 -23.347
33.402 7.226 -23.337
33.642 6.936 -23.317
33.872 6.656 -23.307
34.112 6.496 -23.297
34.352 6.336 -23.287
34.592 6.146 -23.277
34.832 6.076 -23.277
35.072 6.006 -23.277
35.322 5.966 -23.277
35.562 5.886 -23.267
35.812 5.916 -23.267
36.052 5.926 -23.267
36.302 5.966 -23.277
36.542 5.956 -23.267
36.792 6.016 -23.277
37.042 6.016 -23.277
37.292 6.156 -23.277
37.542 6.306 -23.287
37.792 6.476 -23.297
38.042 6.486 -23.297
38.292 6.546 -23.297
38.532 6.506 -23.297
38.782 6.506 -23.297
39.032 6.596 -23.307
39.282 6.726 -23.307
39.542 6.976 -23.317
39.812 7.526 -23.347
44.262 -14.504 -22.287
44.022 -14.394 -22.287
44.502 -14.494 -22.287
44.732 -14.624 -22.277
44.972 -14.604 -22.277
45.192 -14.844 -22.267
45.432 -14.904 -22.267
45.672 -14.904 -22.267
45.912 -14.844 -22.267
46.142 -14.984 -22.267
46.382 -15.024 -22.257
46.622 -15.084 -22.257
46.862 -15.044 -22.257
47.102 -15.014 -22.257
47.342 -15.044 -22.257
47.582 -15.044 -22.257
47.822 -15.044 -22.257
48.052 -15.074 -22.257
48.292 -15.124 -22.257
48.522 -15.214 -22.247
48.742 -15.544 -22.237
48.962 -15.914 -22.217
49.192 -16.034 -22.207
49.432 -15.994 -22.217
49.672 -15.974 -22.217
49.922 -15.854 -22.217
50.162 -15.794 -22.227
50.412 -15.724 -22.227
50.642 -15.714 -22.227
50.892 -15.564 -22.237
51.142 -15.494 -22.237
51.392 -15.314 -22.247
51.642 -15.174 -22.247
51.892 -14.964 -22.257
52.152 -14.554 -22.277
56.572 -2.474 -22.857
56.342 -2.394 -22.867
56.792 -2.794 -22.847
57.022 -2.974 -22.837
57.262 -3.084 -22.837
57.492 -3.204 -22.827
57.732 -3.344 -22.817
57.962 -3.454 -22.817
58.202 -3.454 -22.817
58.452 -3.474 -22.817
58.692 -3.404 -22.817
58.952 -3.254 -22.827
59.202 -3.124 -22.827
59.452 -2.974 -22.837
59.702 -2.844 -22.847
59.962 -2.714 -22.847
60.222 -2.434 -22.867
60.482 -2.174 -22.877
60.752 -1.844 -22.647
60.732 -2.034 -22.877
-19.458 8.216 -23.627
-19.718 8.826 -23.657
-19.198 7.676 -23.607
-18.948 7.236 -23.577
-18.698 7.006 -23.567
-18.448 6.796 -23.557
-18.198 6.646 -23.557
-17.948 6.546 -23.547
-17.708 6.486 -23.547
-17.458 6.456 -23.547
-17.208 6.396 -23.537
-16.968 6.326 -23.537
-16.718 6.366 -23.537
-16.478 6.446 -23.547
-16.228 6.516 -23.547
-15.198 -10.734 -22.707
-15.448 -10.454 -22.727
-14.958 -11.014 -22.697
-14.718 -11.234 -22.687
-14.468 -11.404 -22.677
-14.228 -11.564 -22.667
-13.988 -11.614 -22.667
-13.738 -11.794 -22.657
-13.498 -11.854 -22.657
-13.258 -11.944 -22.657
-13.018 -11.944 -22.657
-12.778 -12.034 -22.647
-12.538 -12.104 -22.647
-12.298 -12.004 -22.647
-12.058 -11.974 -22.657
-11.818 -12.034 -22.647
-11.578 -12.034 -22.647
-11.338 -12.054 -22.647
-11.098 -12.074 -22.647
-10.858 -12.064 -22.647
-10.618 -11.914 -22.657
-10.378 -11.844 -22.657
-10.138 -11.684 -22.667
-9.898 -11.414 -22.677
-9.668 -11.174 -22.687
-9.428 -10.834 -22.707
-9.188 -10.604 -22.717
-8.948 -10.374 -22.727
-8.708 -10.144 -22.737
-8.478 -9.874 -22.757
-8.238 -9.574 -22.767
32.712 8.356 -23.637
32.502 9.106 -23.667
32.942 8.016 -23.617
33.172 7.606 -23.597
33.412 7.246 -23.577
33.642 6.986 -23.567
33.872 6.656 -23.547
34.112 6.496 -23.547
34.352 6.306 -23.537
34.592 6.116 -23.527
34.832 6.016 -23.517
35.072 5.946 -23.517
35.312 5.926 -23.517
35.562 5.876 -23.517
35.802 5.866 -23.517
36.052 5.826 -23.507
36.292 5.836 -23.507
36.542 5.866 -23.517
36.792 5.956 -23.517
37.032 5.966 -23.517
37.292 6.186 -23.527
37.542 6.226 -23.527
37.792 6.366 -23.537
38.042 6.436 -23.537
38.292 6.536 -23.547
38.532 6.546 -23.547
38.782 6.516 -23.547
39.022 6.536 -23.547
39.282 6.726 -23.557
39.542 6.966 -23.567
39.812 7.506 -23.587
44.502 -14.394 -22.527
44.252 -14.564 -22.527
44.742 -14.394 -22.527
44.972 -14.544 -22.527
45.202 -14.694 -22.517
45.442 -14.824 -22.507
45.672 -14.864 -22.507
45.912 -14.964 -22.507
46.142 -15.064 -22.497
46.382 -15.024 -22.497
46.622 -15.104 -22.497
46.862 -15.054 -22.497
47.092 -15.094 -22.497
47.342 -15.024 -22.497
47.582 -15.054 -22.497
47.822 -15.014 -22.497
48.052 -15.064 -22.497
48.292 -15.134 -22.497
48.522 -15.194 -22.487
48.752 -15.364 -22.487
48.972 -15.674 -22.467
49.202 -15.904 -22.457
49.442 -15.864 -22.457
49.682 -15.894 -22.457
49.922 -15.874 -22.457
50.162 -15.774 -22.467
50.412 -15.704 -22.467
50.642 -15.764 -22.467
50.892 -15.554 -22.477
51.142 -15.464 -22.477
51.392 -15.334 -22.487
51.632 -15.244 -22.487
51.882 -15.054 -22.497
52.162 -14.414 -22.527
56.822 -2.414 -23.107
56.592 -2.274 -23.117
57.042 -2.714 -23.097
57.272 -2.914 -23.087
57.512 -3.024 -23.077
57.742 -3.144 -23.077
57.972 -3.284 -23.067
58.212 -3.364 -23.057
58.452 -3.384 -23.057
58.692 -3.424 -23.057
58.952 -3.224 -23.067
59.202 -3.064 -23.077
59.452 -2.964 -23.077
59.702 -2.864 -23.087
59.962 -2.714 -23.097
60.222 -2.484 -23.107
60.472 -2.344 -23.107
60.722 -2.194 -23.117
60.992 -1.844 -22.887
60.982 -1.944 -23.127
61.282 -1.224 -22.917
61.242 -1.724 -23.137
-19.458 8.306 -23.877
-19.718 8.636 -23.897
-19.198 7.656 -23.847
-18.948 7.206 -23.827
-18.698 7.066 -23.817
-18.448 6.836 -23.807
-18.198 6.686 -23.797
-17.948 6.536 -23.797
-17.698 6.436 -23.787
-17.458 6.366 -23.787
-17.208 6.326 -23.787
-16.968 6.326 -23.787
-16.718 6.336 -23.787
-16.478 6.386 -23.787
-16.228 6.446 -23.787
-15.208 -10.614 -22.957
-15.448 -10.424 -22.967
-14.958 -10.984 -22.937
-14.718 -11.184 -22.927
-14.468 -11.374 -22.917
-14.228 -11.584 -22.907
-13.988 -11.664 -22.907
-13.748 -11.734 -22.907
-13.498 -11.904 -22.897
-13.258 -11.904 -22.897
-13.018 -11.984 -22.887
-12.778 -12.154 -22.887
-12.538 -12.134 -22.887
-12.298 -12.134 -22.887
-12.058 -12.124 -22.887
-11.818 -12.194 -22.877
-11.578 -12.094 -22.887
-11.338 -11.974 -22.897
-11.098 -11.864 -22.897
-10.858 -11.904 -22.897
-10.618 -11.904 -22.897
-10.378 -11.824 -22.897
-10.138 -11.644 -22.907
-9.898 -11.414 -22.917
-9.668 -11.164 -22.927
-9.428 -10.804 -22.947
-9.188 -10.634 -22.957
-8.948 -10.404 -22.967
-8.708 -10.164 -22.977
-8.478 -9.864 -22.997
-8.238 -9.564 -23.007
32.722 8.466 -23.887
32.492 9.006 -23.907
32.952 8.066 -23.867
33.182 7.636 -23.847
33.412 7.266 -23.827
33.642 6.886 -23.807
33.872 6.676 -23.797
34.112 6.486 -23.787
