-28.684 6.828 17.791
-28.934 6.980 17.763
-29.184 7.152 17.746
-29.424 7.173 17.738
-29.664 7.234 17.723
-29.904 7.174 17.728
-30.144 7.194 17.720
-30.394 7.316 17.699
-30.624 7.135 17.715
-31.244 5.385 17.898
-31.024 5.699 17.863
-31.484 5.396 17.889
-31.734 5.426 17.881
-31.974 5.518 17.869
-32.234 5.721 17.834
-32.474 5.822 17.822
-32.714 5.742 17.826
-32.954 5.702 17.823
-33.194 5.652 17.819
-33.424 5.531 17.829
-33.654 5.379 17.848
-33.894 5.360 17.836
-34.124 5.127 17.858
-34.314 4.227 17.958
-34.544 3.832 17.997
-34.774 3.681 18.005
-35.014 3.601 18.009
-35.264 3.885 17.971
-35.534 4.350 17.917
-35.784 4.512 17.900
-36.024 4.503 17.889
-36.264 4.503 17.889
-36.494 4.291 17.902
-36.724 4.089 17.917
-36.964 4.109 17.918
-37.204 4.040 17.913
-37.434 3.837 17.937
-37.654 3.454 17.967
-37.884 3.109 18.010
-38.124 3.069 18.007
-38.354 2.948 18.017
-38.594 2.797 18.026
-38.824 2.605 18.041
-39.044 2.211 18.080
-39.284 2.110 18.082
-39.534 2.313 18.058
-39.784 2.515 18.034
-40.024 2.456 18.029
-40.254 2.314 18.038
-40.494 2.163 18.056
-40.724 1.900 18.075
-41.314 -1.165 18.406
-41.084 -0.842 18.381
-41.544 -1.378 18.429
-41.774 -1.559 18.445
-42.004 -1.882 18.470
-42.234 -2.307 18.517
-42.454 -2.813 18.567
-42.694 -2.924 18.578
-42.924 -3.116 18.593
-43.164 -3.125 18.583
-43.404 -3.216 18.596
-43.634 -3.539 18.620
-5.534 1.799 18.850
-5.794 1.881 18.836
-5.824 2.265 18.545
-5.564 2.183 18.559
-6.074 2.356 18.533
-6.314 2.407 18.517
-6.574 2.508 18.504
-6.814 2.489 18.503
-7.054 2.439 18.499
-7.294 2.439 18.499
-7.534 2.430 18.488
-7.794 2.622 18.463
-8.054 2.825 18.439
-8.314 2.977 18.411
-8.614 3.625 18.332
-8.864 3.657 18.575
-8.904 4.274 18.252
-9.144 4.123 18.511
-9.164 4.456 18.236
-9.424 4.588 18.207
-9.644 4.406 18.222
-9.884 4.377 18.220
-10.134 4.437 18.215
-10.374 4.438 18.205
-10.614 4.408 18.203
-10.864 4.439 18.195
-11.094 4.247 18.210
-11.324 4.166 18.214
-11.604 4.642 18.161
-12.954 6.344 17.944
-12.734 6.577 17.922
-13.184 6.133 17.957
-13.404 5.961 17.974
-13.644 5.900 17.979
-13.884 5.840 17.974
-14.134 5.902 17.959
-14.374 5.882 17.957
-14.614 5.852 17.955
-14.864 6.054 17.931
-15.114 6.166 17.910
-15.364 6.187 17.901
-15.604 6.218 17.894
-15.844 6.147 17.898
-16.074 6.077 17.903
-16.324 6.168 17.890
-16.964 8.203 17.649
-16.684 7.707 17.710
-17.204 8.245 17.632
-17.434 8.123 17.642
-17.644 7.679 17.688
-17.864 7.395 17.715
-18.104 7.406 17.706
-18.374 7.741 17.662
-18.614 7.741 17.662
-18.864 7.812 17.648
-19.094 7.741 17.652
-19.324 7.580 17.660
-19.564 7.531 17.907
-19.564 7.560 17.658
-19.804 7.560 17.658
-20.014 7.106 17.703
-20.254 7.045 17.708
-20.514 7.369 17.663
-20.774 7.643 17.625
-21.014 7.553 17.878
-21.024 7.745 17.612
-21.274 7.806 17.597
-21.504 7.735 17.602
-21.754 7.877 17.583
-22.464 7.545 17.597
-22.234 7.747 17.583
-22.704 7.616 17.592
-22.924 7.262 17.625
-23.154 7.131 17.634
-23.394 7.172 17.628
-23.644 7.203 17.610
-23.884 7.152 17.616
-24.134 7.315 17.589
-24.384 7.538 17.556
-24.644 7.782 17.525
-24.884 7.802 17.517
-25.124 7.853 17.511
-25.354 7.630 17.533
-25.594 7.601 17.531
-25.844 7.723 17.510
-26.074 7.531 17.525
-26.284 7.086 17.571
-26.504 6.803 17.599
-26.754 6.895 17.576
-27.004 6.976 17.562
-27.244 7.047 17.558
-27.494 7.199 17.529
-27.724 7.018 17.545
-27.964 7.028 17.536
-28.204 6.998 17.534
-28.454 7.070 17.519
-28.694 7.171 17.507
-28.944 7.192 17.499
-29.184 7.304 17.477
-29.424 7.304 17.477
-29.664 7.253 17.484
-29.914 7.437 17.448
-30.154 7.386 17.454
-30.394 7.457 17.439
-30.634 7.336 17.450
-30.844 6.822 17.740
-30.864 7.134 17.464
-31.484 5.455 17.643
-31.254 5.506 17.637
-31.734 5.567 17.622
-31.984 5.618 17.616
-32.224 5.689 17.601
-32.474 5.892 17.567
-32.714 5.853 17.564
-32.954 5.843 17.563
-33.194 5.823 17.562
-33.424 5.682 17.570
-33.664 5.530 17.589
-33.904 5.510 17.577
-34.134 5.298 17.600
-34.334 4.580 17.674
-34.534 3.852 17.747
-34.774 3.761 17.760
-35.014 3.650 17.762
-35.264 3.913 17.732
-35.534 4.430 17.663
-35.774 4.552 17.652
-36.024 4.634 17.628
-36.264 4.593 17.635
-36.494 4.411 17.651
-36.724 4.250 17.658
-36.964 4.250 17.658
-37.204 4.190 17.654
-37.434 3.917 17.682
-37.654 3.472 17.728
-37.884 3.169 17.754
-38.124 3.149 17.752
-38.354 3.059 17.755
-38.594 2.938 17.766
-38.824 2.776 17.783
-39.054 2.524 17.803
-39.284 2.230 17.831
-39.524 2.221 17.830
-39.774 2.424 17.796
-40.014 2.474 17.790
-40.254 2.404 17.794
-40.494 2.212 17.809
-40.714 1.829 17.839
-41.314 -0.944 18.142
-41.084 -0.802 18.124
-41.544 -1.216 18.161
-41.784 -1.409 18.186
-42.014 -1.722 18.212
-42.234 -2.075 18.244
-42.454 -2.652 18.309
-42.684 -2.904 18.329
-42.924 -3.086 18.345
-43.164 -3.085 18.335
-43.404 -3.156 18.339
-43.634 -3.398 18.361
-5.304 1.970 18.592
-5.584 2.425 18.287
-5.344 2.405 18.296
-5.844 2.577 18.269
-6.104 2.740 18.242
-6.354 2.811 18.227
-6.594 2.801 18.227
-6.834 2.731 18.231
-7.064 2.630 18.233
-7.304 2.550 18.237
-7.554 2.641 18.224
-7.814 2.874 18.192
-8.064 2.945 18.178
-8.344 3.360 18.130
-8.624 3.827 18.067
-8.924 4.546 17.983
-9.184 4.668 17.962
-9.434 4.729 17.947
-9.664 4.668 17.952
-9.904 4.547 17.963
-10.144 4.517 17.960
-10.384 4.518 17.950
-10.624 4.477 17.957
-10.854 4.397 17.961
-11.094 4.286 17.962
-11.324 4.206 17.966
-12.974 6.617 17.664
-12.744 6.849 17.642
-13.194 6.395 17.687
-13.414 6.061 17.721
-13.644 5.879 17.737
-13.904 6.112 17.705
-14.154 6.234 17.684
-14.394 6.245 17.675
-14.634 6.235 17.674
-14.894 6.418 17.648
-15.134 6.388 17.646
-15.374 6.418 17.639
-15.614 6.379 17.635
-15.854 6.308 17.640
-16.084 6.208 17.642
-16.334 6.330 17.621
-16.964 8.253 17.402
-16.654 7.392 17.504
-17.204 8.324 17.387
-17.444 8.244 17.391
-17.654 7.849 17.430
-17.874 7.546 17.456
-18.114 7.587 17.450
-18.374 7.841 17.409
-18.624 7.841 17.409
-18.874 7.963 17.389
-19.094 7.781 17.405
-19.334 7.700 17.408
-19.584 7.812 17.387
-19.814 7.721 17.400
-20.034 7.398 17.425
-20.264 7.257 17.434
-20.524 7.510 17.403
-20.784 7.845 17.360
-21.034 7.967 17.339
-21.284 7.987 17.341
-21.524 8.008 17.322
-21.774 8.079 17.318
-22.014 8.050 17.556
-22.024 8.251 17.291
-22.224 7.715 17.349
-22.464 7.716 17.339
-22.694 7.524 17.354
-22.934 7.484 17.351
-23.164 7.262 17.374
-23.394 7.191 17.378
-23.644 7.333 17.359
-23.884 7.263 17.364
-24.134 7.425 17.337
-24.384 7.628 17.312
-24.644 7.800 17.286
-24.884 7.872 17.271
-25.124 7.832 17.268
-25.354 7.589 17.289
-25.594 7.701 17.278
-25.844 7.803 17.256
-26.084 7.752 17.262
-26.294 7.257 17.313
-26.514 7.025 17.325
-26.764 7.046 17.317
-27.004 7.076 17.309
-27.244 7.127 17.303
-27.494 7.228 17.291
-27.724 7.098 17.291
-27.964 7.098 17.291
-28.204 7.058 17.288
-28.454 7.210 17.269
-28.704 7.322 17.248
-28.944 7.363 17.241
-29.184 7.373 17.232
-29.434 7.465 17.219
-29.674 7.404 17.225
-29.914 7.445 17.208
-30.164 7.577 17.188
-30.394 7.517 17.193
-30.634 7.446 17.198
-30.864 7.264 17.214
-31.064 6.446 17.540
-31.084 6.932 17.238
-31.494 5.586 17.382
-31.264 5.849 17.353
-31.734 5.597 17.373
-31.984 5.708 17.362
-32.224 5.749 17.345
-32.474 5.962 17.322
-32.714 5.963 17.312
-32.954 5.973 17.313
-33.194 5.933 17.309
-33.434 5.812 17.320
-33.664 5.691 17.320
-33.904 5.580 17.332
-34.134 5.489 17.335
-34.354 4.984 17.385
-34.534 3.851 17.507
-34.774 3.760 17.510
-35.014 3.821 17.504
-35.264 4.075 17.464
-35.534 4.541 17.410
-35.774 4.602 17.395
-36.024 4.663 17.390
-36.264 4.694 17.372
-36.494 4.532 17.390
-36.734 4.360 17.406
-36.974 4.350 17.406
-37.204 4.189 17.413
-37.424 3.886 17.439
-37.644 3.350 17.497
-37.874 3.158 17.512
-38.114 3.098 17.518
-38.354 3.078 17.516
-38.594 2.977 17.518
-38.824 2.815 17.536
-39.054 2.664 17.544
-39.284 2.341 17.578
-39.524 2.209 17.588
-39.764 2.321 17.567
-40.014 2.453 17.547
-40.254 2.414 17.544
-40.484 2.232 17.560
-40.704 1.705 17.619
-40.874 -0.084 18.050
-41.084 -0.682 17.872
-40.864 -0.227 17.828
-41.324 -0.782 17.874
-41.554 -1.015 17.896
-41.784 -1.267 17.916
-42.014 -1.601 17.950
-42.244 -1.914 17.986
-42.464 -2.278 18.017
-42.684 -2.804 18.076
-42.924 -3.077 18.095
-43.164 -3.117 18.102
-43.404 -3.136 18.090
-43.634 -3.369 18.112
-5.074 2.121 18.333
-5.354 2.545 18.036
-5.104 2.494 18.052
-5.604 2.607 18.021
-5.874 2.930 17.986
-6.124 3.042 17.965
-6.374 3.154 17.943
-6.614 3.053 17.955
-6.834 2.831 17.978
-7.084 2.872 17.961
-7.314 2.700 17.978
-7.564 2.852 17.960
-7.834 3.076 17.927
-8.084 3.207 17.907
-8.354 3.522 17.862
-8.634 4.008 17.800
-8.934 4.656 17.731
-9.194 4.879 17.698
-9.434 4.839 17.695
-9.684 4.930 17.682
-9.924 4.891 17.679
-10.154 4.749 17.688
-10.384 4.568 17.704
-10.624 4.578 17.694
-10.864 4.457 17.705
-11.104 4.417 17.702
-11.344 4.488 17.697
-12.984 6.849 17.392
-12.754 6.970 17.391
-13.204 6.515 17.425
-13.434 6.364 17.444
-13.664 6.222 17.453
-13.924 6.456 17.421
-14.174 6.506 17.415
-14.414 6.476 17.412
-14.654 6.568 17.390
-14.904 6.599 17.382
-15.154 6.711 17.361
-15.384 6.569 17.380
-15.624 6.529 17.376
-15.854 6.429 17.379
-16.094 6.328 17.391
-16.334 6.369 17.374
-17.204 8.364 17.140
-16.964 8.343 17.148
-17.444 8.253 17.141
-17.664 8.021 17.163
-17.884 7.717 17.199
-18.114 7.616 17.201
-18.384 7.951 17.157
-18.634 8.083 17.138
-18.874 8.134 17.132
-19.104 7.982 17.140
-19.344 7.871 17.151
-19.594 7.973 17.129
-19.814 7.731 17.150
-20.044 7.579 17.168
-20.274 7.459 17.169
-20.534 7.742 17.131
-20.794 7.904 17.113
-21.044 8.087 17.088
-21.284 8.118 17.080
-21.524 8.098 17.079
-21.764 8.128 17.071
-22.924 7.382 17.123
-22.694 7.624 17.101
-23.164 7.372 17.122
-23.404 7.373 17.112
-23.654 7.494 17.101
-23.884 7.403 17.104
-24.134 7.445 17.087
-24.394 7.708 17.058
-24.634 7.820 17.037
-24.874 7.790 17.034
-25.124 7.911 17.024
-25.354 7.760 17.032
-25.604 7.781 17.024
-25.844 7.913 17.004
-26.084 7.812 17.006
-26.304 7.539 17.035
-26.524 7.176 17.066
-26.764 7.145 17.074
-27.014 7.308 17.046
-27.254 7.308 17.036
-27.494 7.308 17.036
-27.734 7.228 17.040
-27.974 7.319 17.027
-28.214 7.249 17.022
-28.454 7.300 17.016
-28.704 7.361 17.001
-28.944 7.463 16.988
-29.194 7.565 16.966
-29.434 7.585 16.958
-29.684 7.677 16.945
-29.924 7.636 16.952
-30.164 7.697 16.937
-30.404 7.759 16.921
-30.644 7.648 16.933
-30.874 7.436 16.946
-31.104 7.264 16.963
-31.494 5.737 17.123
-31.284 6.232 17.072
-31.734 5.676 17.129
-31.984 5.728 17.113
-32.224 5.860 17.093
-32.474 5.982 17.072
-32.724 6.133 17.054
-32.964 6.053 17.058
-33.194 6.013 17.055
-33.434 5.963 17.051
-33.664 5.791 17.068
-33.904 5.741 17.074
-34.144 5.640 17.076
-34.364 5.226 17.113
-34.534 4.002 17.248
-34.774 3.840 17.265
-35.014 3.921 17.251
-35.274 4.175 17.211
-35.534 4.610 17.165
-35.784 4.773 17.138
-36.024 4.844 17.123
-36.264 4.713 17.133
-36.494 4.642 17.138
-36.734 4.542 17.140
-36.964 4.360 17.156
-37.204 4.270 17.158
-37.424 3.905 17.200
-37.634 3.268 17.260
-37.864 3.025 17.291
-38.104 2.935 17.294
-38.344 2.986 17.278
-38.584 2.997 17.269
-38.824 2.926 17.273
-39.064 2.805 17.284
-39.284 2.492 17.309
-39.514 2.249 17.340
-39.754 2.219 17.338
-40.004 2.351 17.318
-40.244 2.382 17.311
-40.484 2.231 17.319
-41.084 -0.592 17.618
-40.864 -0.147 17.573
-41.324 -0.702 17.620
-41.554 -0.864 17.637
-41.784 -1.147 17.665
-42.014 -1.471 17.700
-42.244 -1.854 17.730
-42.474 -2.067 17.753
-42.694 -2.602 17.801
-42.924 -2.986 17.841
-43.154 -3.067 17.845
-43.404 -3.128 17.850
-43.634 -3.279 17.858
-43.864 -3.844 18.165
-43.874 -3.501 17.881
-4.834 2.159 18.096
-5.114 2.646 17.783
-4.854 2.412 17.815
-5.374 2.817 17.766
-5.624 2.869 17.750
-5.874 3.001 17.731
-6.134 3.133 17.711
-6.374 3.143 17.702
-6.604 3.002 17.711
-6.844 2.972 17.708
-7.084 2.902 17.713
-7.314 2.791 17.724
-7.584 3.014 17.692
-7.844 3.267 17.661
-8.104 3.420 17.633
-8.374 3.815 17.584
-8.654 4.220 17.536
-8.934 4.675 17.481
-9.194 4.848 17.455
-9.434 4.869 17.446
-9.674 4.777 17.459
-9.904 4.708 17.454
-10.144 4.698 17.453
-10.384 4.617 17.457
-10.624 4.547 17.461
-10.864 4.517 17.459
-11.104 4.467 17.455
-11.354 4.619 17.437
-11.654 5.237 17.606
-11.634 5.054 17.381
-12.504 6.919 17.397
-12.764 7.130 17.133
-12.514 7.009 17.143
-12.994 6.979 17.141
-13.214 6.737 17.162
-13.434 6.464 17.191
-13.684 6.455 17.180
-13.934 6.657 17.156
-14.184 6.688 17.148
-14.434 6.800 17.127
-14.674 6.881 17.113
-14.924 6.982 17.101
-15.154 6.821 17.108
-15.394 6.761 17.114
-15.624 6.620 17.123
-15.854 6.407 17.146
-16.094 6.347 17.141
-16.334 6.409 17.126
-17.204 8.413 16.893
-16.964 8.402 16.902
-17.434 8.272 16.902
-17.674 8.141 16.911
-17.884 7.817 16.946
-18.114 7.676 16.955
-18.384 7.980 16.919
-18.644 8.244 16.879
-18.884 8.284 16.873
-19.114 8.103 16.888
-19.344 7.961 16.897
-19.594 8.023 16.882
-19.814 7.841 16.898
-20.054 7.690 16.906
-20.284 7.649 16.913
-20.544 7.822 16.886
-20.794 8.004 16.861
-21.044 8.177 16.834
-21.284 8.157 16.832
-21.524 8.158 16.822
-21.784 8.421 16.793
-22.934 7.613 16.860
-22.714 7.826 16.836
-23.174 7.523 16.863
-23.404 7.442 16.866
-23.654 7.564 16.846
-23.904 7.676 16.825
-24.144 7.686 16.825
-24.384 7.687 16.816
-24.644 7.880 16.791
-24.884 7.961 16.777
-25.134 8.022 16.762
-25.354 7.810 16.785
-25.594 7.820 16.776
-25.854 8.013 16.751
-26.084 7.932 16.755
-26.304 7.620 16.780
-26.524 7.266 16.812
-26.764 7.185 16.826
-27.014 7.287 16.804
-27.264 7.439 16.786
-27.504 7.479 16.779
-27.744 7.470 16.768
-27.984 7.541 16.754
-28.224 7.481 16.759
-28.464 7.451 16.757
-28.714 7.633 16.731
-28.964 7.715 16.717
-29.204 7.735 16.709
-29.444 7.776 16.702
-29.684 7.807 16.695
-29.924 7.788 16.683
-30.164 7.778 16.682
-30.414 7.940 16.665
-30.644 7.788 16.673
-30.874 7.556 16.695
-31.104 7.425 16.705
-31.494 5.796 16.877
-31.304 6.626 16.782
-31.734 5.756 16.874
-31.984 5.868 16.853
-32.224 5.929 16.848
-32.474 6.072 16.819
-32.724 6.193 16.808
-32.964 6.184 16.798
-33.204 6.133 16.804
-33.434 6.063 16.798
-33.674 5.952 16.809
-33.904 5.862 16.812
-34.144 5.710 16.830
-34.364 5.397 16.856
-34.544 4.182 16.991
-34.774 3.940 17.012
-35.014 4.032 16.989
-35.274 4.235 16.965
-35.534 4.660 16.908
-35.784 4.853 16.883
-36.024 4.843 16.883
-36.264 4.803 16.879
-36.494 4.672 16.889
-36.734 4.571 16.891
-36.974 4.521 16.897
-37.204 4.319 16.912
-37.424 3.884 16.958
-37.634 3.247 17.028
-37.864 3.076 17.034
-38.104 3.025 17.040
-38.344 2.975 17.036
-38.584 2.996 17.028
-38.824 2.935 17.033
-39.054 2.784 17.042
-39.284 2.572 17.065
-39.524 2.390 17.081
-39.754 2.219 17.087
-40.004 2.330 17.076
-40.244 2.280 17.072
-40.474 2.190 17.075
-41.084 -0.501 17.365
-40.864 -0.056 17.320
-41.324 -0.592 17.368
-41.554 -0.723 17.377
-41.784 -1.026 17.404
-42.014 -1.451 17.451
-42.244 -1.723 17.469
-42.474 -2.027 17.505
-42.704 -2.350 17.530
-42.924 -2.846 17.581
-43.154 -3.047 17.596
-43.394 -3.067 17.594
-43.634 -3.198 17.604
-43.874 -3.401 17.628
-44.034 -5.373 18.085
-44.254 -5.919 18.142
-44.274 -5.555 17.850
-44.054 -4.878 17.783
-5.134 2.877 17.520
-4.874 2.725 17.538
-5.394 3.090 17.487
-5.634 3.070 17.485
-5.894 3.202 17.466
-6.144 3.304 17.444
-6.384 3.264 17.450
-6.604 3.021 17.471
-6.854 3.102 17.458
-7.094 3.082 17.456
-7.334 2.972 17.458
-7.594 3.195 17.425
-7.844 3.347 17.407
-8.094 3.438 17.394
-8.384 3.884 17.339
-8.654 4.249 17.287
-8.914 4.502 17.257
-9.164 4.533 17.249
-9.424 4.716 17.224
-9.674 4.858 17.205
-9.904 4.727 17.214
-10.144 4.656 17.219
-10.384 4.667 17.210
-10.634 4.728 17.195
-10.874 4.658 17.199
-11.124 4.760 17.177
-11.384 4.982 17.154
-11.634 5.135 17.126
-12.774 7.261 16.872
-12.524 7.170 16.885
-13.014 7.241 16.871
-13.234 6.948 16.898
-13.454 6.716 16.920
-13.694 6.686 16.917
-13.944 6.818 16.898
-14.174 6.677 16.907
-14.434 6.869 16.882
-14.684 7.012 16.853
-14.934 7.063 16.847
-15.164 6.972 16.850
-15.394 6.760 16.873
-15.624 6.568 16.888
-15.854 6.427 16.897
-16.094 6.477 16.891
-16.334 6.478 16.881
-16.634 7.137 17.043
-16.604 6.842 16.839
-17.204 8.463 16.646
-16.954 8.260 16.670
-17.444 8.413 16.642
-17.684 8.332 16.646
-17.894 7.989 16.679
-18.124 7.807 16.695
-18.394 8.151 16.651
-18.644 8.374 16.619
-18.904 8.516 16.600
-19.124 8.223 16.627
-19.354 8.112 16.638
-19.604 8.244 16.619
-19.814 7.881 16.650
-20.054 7.749 16.660
-20.284 7.699 16.666
-20.534 7.831 16.646
-20.784 7.953 16.626
-21.054 8.338 16.576
-21.294 8.308 16.573
-21.534 8.358 16.567
-21.784 8.480 16.547
-22.024 8.401 16.791
-22.034 8.573 16.524
-22.964 8.027 16.571
-22.714 7.946 16.585
-23.184 7.693 16.605
-23.414 7.664 16.593
-23.664 7.735 16.589
-23.914 7.837 16.567
-24.154 7.827 16.566
-24.394 7.787 16.563
-24.644 8.030 16.532
-24.894 8.142 16.510
-25.144 8.274 16.491
-25.364 8.021 16.521
-25.604 8.001 16.519
-25.844 8.022 16.511
-26.084 7.962 16.506
-26.304 7.669 16.533
-26.524 7.325 16.566
-26.764 7.335 16.567
-27.014 7.377 16.550
-27.254 7.458 16.537
-27.504 7.590 16.517
-27.754 7.671 16.503
-27.994 7.733 16.488
-28.224 7.591 16.507
-28.474 7.622 16.499
-28.714 7.744 16.479
-28.974 7.967 16.446
-29.204 7.906 16.452
-29.444 7.907 16.442
-29.694 8.019 16.420
-29.934 7.938 16.424
-30.174 7.898 16.431
-30.424 8.060 16.404
-30.654 7.959 16.416
-30.884 7.728 16.427
-31.104 7.454 16.456
-31.314 6.797 16.525
-31.504 5.876 16.623
-31.734 5.816 16.628
-31.984 5.969 16.600
-32.234 6.070 16.588
-32.474 6.101 16.580
-32.724 6.243 16.551
-32.974 6.385 16.532
-33.204 6.295 16.535
-33.434 6.113 16.551
-33.674 6.032 16.555
-33.904 5.911 16.565
-34.144 5.759 16.584
-34.374 5.517 16.605
-34.544 4.334 16.722
-34.774 4.000 16.756
-35.014 4.102 16.744
-35.274 4.345 16.713
-35.534 4.689 16.670
-35.784 4.902 16.636
-36.024 4.842 16.642
-36.254 4.792 16.638
-36.494 4.701 16.641
-36.734 4.641 16.646
-36.974 4.560 16.650
-37.194 4.257 16.676
-37.414 3.822 16.722
-37.624 3.185 16.792
-37.864 3.115 16.787
-38.104 3.004 16.798
-38.334 2.903 16.800
-38.574 2.924 16.792
-38.814 2.904 16.790
-39.054 2.844 16.795
-39.284 2.611 16.817
-39.524 2.490 16.828
-39.754 2.329 16.835
-39.994 2.309 16.834
-40.234 2.269 16.830
-40.474 2.117 16.849
-40.654 0.712 17.240
-40.864 -0.007 17.073
-40.654 0.701 16.998
-41.084 -0.361 17.105
-41.324 -0.461 17.107
-41.564 -0.522 17.112
-41.794 -0.815 17.139
-42.014 -1.250 17.185
-42.244 -1.613 17.217
-42.474 -1.967 17.249
-42.704 -2.057 17.252
-42.924 -2.584 17.311
-43.154 -2.988 17.350
-43.394 -3.048 17.355
-43.634 -3.149 17.357
-43.864 -3.351 17.371
-44.274 -5.273 17.581
-44.054 -4.737 17.523
-4.334 2.107 17.620
-4.604 2.380 17.582
-4.614 2.602 17.318
-4.364 2.470 17.338
-4.884 2.835 17.286
-5.134 2.988 17.258
-5.394 3.170 17.232
-5.644 3.221 17.226
-5.904 3.353 17.207
-6.144 3.344 17.196
-6.374 3.263 17.200
-6.614 3.193 17.204
-6.864 3.223 17.196
-7.104 3.213 17.196
-7.344 3.183 17.193
-7.594 3.305 17.173
-7.844 3.336 17.165
-8.114 3.600 17.126
-8.374 3.812 17.102
-8.644 4.208 17.053
-8.904 4.441 17.021
-9.164 4.603 16.994
-9.414 4.634 16.987
-9.664 4.807 16.960
-9.904 4.715 16.973
-10.144 4.716 16.963
-10.394 4.767 16.957
-10.634 4.798 16.939
-10.884 4.920 16.929
-11.134 4.950 16.921
-11.404 5.244 16.884
-12.794 7.554 16.594
-12.554 7.543 16.604
-13.014 7.302 16.615
-13.244 7.120 16.630
-13.474 6.958 16.648
-13.714 6.999 16.631
-13.954 6.999 16.631
-14.204 7.081 16.617
-14.454 7.213 16.598
-14.704 7.274 16.582
-14.944 7.325 16.576
-15.174 7.123 16.591
-15.394 6.769 16.623
-15.614 6.577 16.648
-15.854 6.537 16.645
-16.094 6.548 16.636
-16.344 6.598 16.630
-16.604 6.882 16.592
-17.204 8.512 16.399
-16.924 7.976 16.457
-17.454 8.564 16.383
-17.684 8.351 16.406
-17.894 8.048 16.433
-18.124 7.897 16.441
-18.394 8.292 16.392
-18.644 8.413 16.381
-18.904 8.566 16.353
-19.124 8.353 16.376
-19.364 8.334 16.365
-19.604 8.254 16.369
-19.824 8.001 16.399
-20.054 7.890 16.400
-20.294 7.779 16.411
-20.534 7.840 16.396
-20.794 8.053 16.373
-21.054 8.367 16.327
-21.294 8.418 16.321
-21.554 8.581 16.294
-21.804 8.733 16.276
-22.044 8.784 16.260
-22.484 8.057 16.574
-22.714 8.056 16.333
-22.484 8.198 16.314
-22.964 8.137 16.319
-23.184 7.824 16.345
-23.424 7.815 16.334
-23.664 7.764 16.340
-23.914 7.998 16.308
-24.164 8.038 16.301
-24.394 7.958 16.305
-24.644 8.070 16.284
-24.904 8.293 16.251
-25.144 8.314 16.243
-25.374 8.203 16.254
-25.614 8.132 16.259
-25.854 8.193 16.243
-26.094 8.143 16.250
-26.314 7.830 16.275
-26.534 7.517 16.301
-26.774 7.466 16.307
-27.024 7.629 16.279
-27.264 7.639 16.280
-27.504 7.690 16.264
-27.754 7.772 16.250
-27.994 7.732 16.247
-28.234 7.712 16.246
-28.474 7.682 16.243
-28.714 7.752 16.239
-28.974 7.976 16.206
-29.214 7.986 16.197
-29.454 7.986 16.197
-29.694 8.048 16.182
-29.934 7.987 16.187
-30.174 8.059 16.173
-30.414 8.009 16.169
-30.654 8.090 16.155
-30.884 7.797 16.182
-31.104 7.483 16.218
-31.314 6.948 16.266
-31.504 6.088 16.359
-31.734 5.916 16.375
-31.984 6.049 16.346
-32.234 6.201 16.327
-32.474 6.140 16.333
-32.724 6.353 16.299
-32.964 6.353 16.299
-33.204 6.294 16.295
-33.434 6.172 16.305
-33.664 6.000 16.322
-33.904 5.879 16.332
-34.144 5.829 16.328
-34.374 5.587 16.349
-34.544 4.393 16.476
-34.774 4.040 16.508
-35.014 4.172 16.489
-35.274 4.394 16.466
-35.534 4.739 16.423
-35.774 4.831 16.400
-36.014 4.801 16.398
-36.254 4.760 16.405
-36.494 4.690 16.399
-36.734 4.721 16.391
-36.964 4.569 16.410
-37.194 4.256 16.435
-37.404 3.589 16.503
-37.614 3.073 16.553
-37.854 3.023 16.559
-38.094 2.912 16.560
-38.324 2.832 16.564
-38.564 2.711 16.574
-38.804 2.731 16.566
-39.044 2.731 16.566
-39.284 2.580 16.574
-39.514 2.469 16.585
-39.754 2.338 16.595
-39.994 2.227 16.596
-40.234 2.207 16.595
-40.464 1.944 16.624
-40.854 0.023 16.824
-40.634 0.468 16.779
-41.084 -0.270 16.851
-41.324 -0.442 16.868
-41.564 -0.461 16.856
-41.794 -0.643 16.872
-42.024 -1.047 16.911
-42.244 -1.503 16.965
-42.474 -1.836 16.989
-42.704 -1.998 17.006
-42.934 -2.322 17.041
-43.154 -2.898 17.096
-43.394 -2.968 17.100
-43.634 -3.119 17.109
-43.864 -3.311 17.124
-44.274 -5.142 17.320
-44.064 -4.525 17.249
-44.504 -5.697 17.618
-44.514 -5.324 17.336
-4.094 2.227 17.369
-4.384 2.702 17.065
-4.104 2.358 17.108
-4.644 2.956 17.025
-4.904 3.128 17.008
-5.154 3.230 16.986
-5.414 3.402 16.970
-5.664 3.494 16.947
-5.914 3.595 16.935
-6.154 3.474 16.945
-6.384 3.333 16.954
-6.624 3.323 16.944
-6.854 3.202 16.954
-7.104 3.202 16.954
-7.344 3.264 16.939
-7.604 3.446 16.913
-7.854 3.487 16.906
-8.114 3.690 16.872
-8.374 3.873 16.846
-8.634 4.055 16.821
-8.894 4.289 16.789
-9.154 4.511 16.766
-9.404 4.633 16.746
-9.654 4.704 16.731
-9.894 4.705 16.721
-10.154 4.887 16.705
-10.394 4.898 16.696
-10.644 4.888 16.696
-10.904 5.172 16.658
-11.154 5.243 16.643
-12.014 6.864 16.691
-12.284 7.249 16.641
-12.284 7.299 16.394
-12.024 6.985 16.429
-12.544 7.532 16.362
-12.794 7.583 16.346
-13.014 7.391 16.371
-13.254 7.341 16.367
-13.464 6.968 16.398
-13.714 7.079 16.386
-13.964 7.160 16.373
-14.224 7.383 16.340
-14.474 7.535 16.322
-14.724 7.566 16.314
-14.944 7.304 16.334
-15.174 7.162 16.343
-15.394 6.809 16.375
-15.614 6.596 16.399
-15.864 6.637 16.392
-16.114 6.850 16.358
-16.354 6.800 16.364
-16.614 7.023 16.332
-17.214 8.582 16.144
-16.914 7.782 16.241
-17.444 8.522 16.149
-17.684 8.461 16.154
-17.904 8.209 16.174
-18.144 8.118 16.177
-18.404 8.342 16.145
-18.654 8.554 16.121
-18.904 8.625 16.107
-19.134 8.454 16.124
-19.364 8.322 16.133
-19.604 8.283 16.130
-19.804 7.828 16.175
-20.034 7.646 16.190
-20.284 7.748 16.168
-20.524 7.789 16.161
-20.794 8.113 16.117
-21.054 8.447 16.083
-21.304 8.549 16.061
-21.554 8.620 16.046
-21.804 8.873 16.016
-22.054 8.945 16.002
-22.724 8.217 16.065
-22.494 8.359 16.056
-22.964 8.116 16.077
-23.194 8.016 16.079
-23.434 7.976 16.076
-23.664 7.865 16.087
-23.914 8.017 16.069
-24.164 8.098 16.055
-24.404 8.079 16.044
-24.654 8.180 16.032
-24.904 8.353 16.005
-25.134 8.302 16.011
-25.384 8.333 16.004
-25.624 8.384 15.988
-25.864 8.313 15.992
-26.104 8.314 15.982
-26.324 7.981 16.016
-26.534 7.536 16.061
-26.784 7.688 16.043
-27.024 7.749 16.028
-27.274 7.770 16.020
-27.524 7.962 15.995
-27.764 7.963 15.985
-27.994 7.862 15.997
-28.234 7.791 16.001
-28.484 7.903 15.980
-28.714 7.853 15.976
-28.974 8.116 15.947
-29.214 8.157 15.940
-29.454 8.057 15.942
-29.694 8.138 15.928
-29.934 8.159 15.920
-30.174 8.159 15.920
-30.414 8.048 15.921
-30.644 7.948 15.923
-30.884 7.877 15.928
-31.114 7.645 15.950
-31.324 7.109 16.008
-31.524 6.401 16.082
-31.744 5.996 16.121
-31.984 6.078 16.107
-32.234 6.250 16.081
-32.474 6.271 16.072
-32.724 6.362 16.059
-32.964 6.453 16.046
-33.204 6.434 16.045
-33.434 6.252 16.061
-33.674 6.141 16.062
-33.904 6.040 16.074
-34.144 5.899 16.083
-34.374 5.667 16.095
-34.554 4.635 16.214
-34.774 4.140 16.255
-35.014 4.201 16.250
-35.264 4.363 16.223
-35.524 4.789 16.166
-35.774 4.830 16.159
-36.014 4.860 16.152
-36.254 4.760 16.154
-36.494 4.740 16.152
-36.734 4.730 16.151
-36.964 4.538 16.166
-37.174 3.871 16.234
-37.374 3.173 16.310
-37.604 2.981 16.325
-37.854 2.992 16.316
-38.094 2.982 16.315
-38.334 2.921 16.320
-38.564 2.699 16.333
-38.794 2.578 16.343
-39.034 2.579 16.333
-39.284 2.600 16.325
-39.514 2.489 16.336
-39.754 2.337 16.344
-39.984 2.246 16.357
-40.224 2.176 16.352
-40.444 1.619 16.418
-40.854 0.052 16.576
-40.624 0.315 16.556
-41.084 -0.180 16.598
-41.324 -0.362 16.613
-41.564 -0.382 16.612
-41.794 -0.492 16.613
-42.024 -0.816 16.648
-42.244 -1.312 16.699
-42.474 -1.736 16.736
-42.704 -2.039 16.762
-42.934 -2.170 16.772
-43.154 -2.736 16.828
-43.394 -2.867 16.837
-43.634 -3.029 16.855
-43.864 -3.221 16.870
-44.284 -5.011 17.060
-44.064 -4.364 16.991
-44.514 -5.112 17.062
-3.854 2.226 17.128
-4.134 2.731 16.827
-3.874 2.468 16.856
-4.404 3.055 16.782
-4.664 3.238 16.756
-4.934 3.532 16.719
-5.194 3.644 16.698
-5.434 3.614 16.696
-5.674 3.604 16.695
-5.914 3.523 16.698
-6.154 3.524 16.689
-6.394 3.454 16.693
-6.624 3.373 16.697
-6.864 3.363 16.696
-7.114 3.343 16.694
-7.364 3.424 16.681
-7.614 3.546 16.660
-7.864 3.628 16.647
-8.114 3.689 16.631
-8.374 3.942 16.601
-8.634 4.185 16.570
-8.894 4.297 16.549
-9.144 4.459 16.531
-9.414 4.804 16.488
-9.664 4.825 16.470
-9.924 5.007 16.454
-10.164 4.998 16.443
-10.404 4.998 16.443
-10.654 5.090 16.421
-10.914 5.282 16.396
-11.174 5.576 16.358
-12.294 7.389 16.140
-12.034 7.267 16.161
-12.544 7.602 16.107
-12.794 7.714 16.095
-13.034 7.592 16.106
-13.254 7.310 16.124
-13.474 7.118 16.139
-13.714 7.098 16.137
-13.984 7.361 16.108
-14.234 7.483 16.087
-14.484 7.676 16.062
-14.734 7.697 16.054
-14.954 7.535 16.071
-15.174 7.202 16.095
-15.394 6.878 16.130
-15.614 6.636 16.151
-15.874 6.879 16.120
-16.134 7.072 16.095
-16.374 7.062 16.084
-16.624 7.144 16.071
-16.894 7.609 16.017
-17.204 8.571 15.902
-17.454 8.693 15.892
-17.694 8.643 15.888
-17.914 8.380 15.907
-18.144 8.199 15.923
-18.404 8.391 15.898
-18.664 8.675 15.860
-18.904 8.726 15.854
-19.154 8.767 15.837
-19.374 8.484 15.865
-19.584 8.130 15.907
-19.804 7.766 15.939
-20.034 7.695 15.943
-20.284 7.747 15.927
-20.534 7.899 15.909
-20.794 8.202 15.873
-21.054 8.527 15.828
-21.314 8.690 15.801
-21.554 8.690 15.801
-21.804 8.903 15.768
-22.054 8.973 15.763
-22.724 8.236 15.826
-22.494 8.438 15.811
-22.954 8.004 15.847
-23.184 7.944 15.843
-23.434 8.065 15.832
-23.674 8.107 15.815
-23.934 8.259 15.797
-24.164 8.229 15.795
-24.404 8.189 15.792
-24.654 8.239 15.786
-24.904 8.402 15.758
-25.144 8.503 15.746
-25.394 8.575 15.732
-25.634 8.545 15.729
-25.864 8.434 15.741
-26.114 8.505 15.726
-26.324 8.131 15.757
-26.554 7.848 15.785
-26.794 7.838 15.784
-27.034 7.920 15.771
-27.284 7.971 15.755
-27.524 8.113 15.736
-27.764 8.022 15.739
-27.994 7.921 15.751
-28.244 7.952 15.743
-28.484 8.003 15.727
-28.724 7.973 15.725
-28.974 8.105 15.705
-29.224 8.288 15.679
-29.454 8.238 15.675
-29.704 8.269 15.668
-29.944 8.401 15.648
-30.184 8.350 15.654
-30.414 8.199 15.662
-30.654 8.108 15.675
-30.884 8.038 15.670
-31.104 7.664 15.710
-31.314 7.117 15.768
-31.524 6.551 15.823
-31.744 6.096 15.868
-31.984 6.188 15.855
-32.234 6.300 15.834
-32.474 6.361 15.818
-32.724 6.402 15.812
-32.964 6.524 15.791
-33.204 6.494 15.789
-33.434 6.312 15.805
-33.664 6.100 15.828
-33.904 6.070 15.826
-34.144 6.020 15.822
-34.364 5.666 15.854
-34.554 4.604 15.971
-34.774 4.189 16.009
-35.014 4.261 15.994
-35.264 4.463 15.970
-35.524 4.767 15.934
-35.764 4.747 15.932
-36.004 4.799 15.916
-36.254 4.860 15.901
-36.484 4.729 15.911
-36.724 4.678 15.917
-36.944 4.163 15.966
-37.134 3.182 16.070
-37.364 2.970 16.083
-37.604 2.859 16.094
-37.844 3.001 16.076
-38.084 2.991 16.075
-38.324 2.890 16.077
-38.554 2.628 16.096
-38.784 2.497 16.106
-39.024 2.436 16.111
-39.264 2.447 16.102
-39.504 2.376 16.107
-39.744 2.276 16.109
-39.984 2.155 16.119
-40.214 2.033 16.130
-40.854 0.152 16.323
-40.624 0.375 16.300
-41.084 -0.141 16.350
-41.324 -0.292 16.358
-41.564 -0.332 16.365
-41.794 -0.433 16.367
-42.034 -0.635 16.381
-42.254 -1.181 16.439
-42.474 -1.626 16.484
-42.704 -1.909 16.512
-42.934 -2.222 16.537
-43.164 -2.565 16.570
-43.394 -2.798 16.592
-43.634 -2.888 16.595
-43.864 -3.263 16.636
-44.284 -4.910 16.797
-44.044 -4.689 16.784
-44.524 -4.930 16.796
-3.614 2.305 16.883
-3.884 2.720 16.585
-3.614 2.406 16.621
-4.154 2.922 16.561
-4.424 3.257 16.517
-4.684 3.449 16.492
-4.934 3.571 16.472
-5.174 3.461 16.473
-5.414 3.400 16.478
-5.654 3.441 16.471
-5.904 3.543 16.449
-6.144 3.462 16.453
-6.384 3.462 16.453
-6.624 3.362 16.455
-6.874 3.423 16.440
-7.114 3.423 16.440
-7.364 3.464 16.433
-7.624 3.647 16.407
-7.864 3.728 16.394
-8.104 3.658 16.388
-8.384 4.022 16.347
-8.654 4.347 16.302
-8.894 4.327 16.300
-9.144 4.459 16.281
-9.414 4.763 16.244
-9.664 4.885 16.224
-9.914 5.007 16.203
-10.174 5.128 16.193
-10.424 5.281 16.165
-10.654 5.149 16.174
-10.914 5.322 16.148
-12.304 7.621 15.867
-12.034 7.216 15.916
-12.544 7.631 15.868
-12.794 7.662 15.861
-13.034 7.723 15.845
-13.254 7.389 15.879
-13.484 7.248 15.888
-13.724 7.249 15.878
-13.974 7.371 15.858
-14.244 7.654 15.830
-14.494 7.807 15.802
-14.734 7.787 15.800
-14.944 7.413 15.841
-15.184 7.322 15.844
-15.394 6.999 15.869
-15.624 6.777 15.891
-15.894 7.172 15.842
-16.154 7.395 15.809
-16.394 7.405 15.810
-16.644 7.537 15.791
-16.904 7.719 15.765
-17.184 8.286 15.699
-17.454 8.753 15.635
-17.704 8.813 15.630
-17.924 8.531 15.648
-18.154 8.339 15.673
-18.394 8.380 15.656
-18.664 8.826 15.601
-18.914 8.948 15.581
-19.124 8.421 15.640
-19.374 8.594 15.613
-19.584 8.089 15.663
-19.804 7.825 15.693
-20.034 7.745 15.697
-20.284 7.766 15.688
-20.534 7.898 15.668
-20.794 8.293 15.619
-21.074 8.758 15.566
-21.314 8.749 15.555
-21.554 8.820 15.541
-21.814 9.104 15.503
-22.054 9.054 15.509
-22.294 8.944 15.751
-22.274 8.801 15.529
-22.514 8.741 15.534
-22.724 8.286 15.579
-22.964 8.256 15.576
-23.204 8.185 15.581
-23.444 8.196 15.572
-23.694 8.318 15.551
-23.934 8.379 15.546
-24.174 8.370 15.535
-24.414 8.400 15.527
-24.664 8.431 15.520
-24.904 8.492 15.505
-25.154 8.664 15.488
-25.394 8.685 15.480
-25.644 8.726 15.463
-25.874 8.666 15.468
-26.114 8.646 15.467
-26.344 8.393 15.487
-26.554 7.979 15.524
-26.804 8.060 15.511
-27.034 8.020 15.518
-27.284 8.050 15.510
-27.534 8.193 15.481
-27.764 8.153 15.488
-28.004 8.011 15.497
-28.234 7.952 15.492
-28.484 8.094 15.473
-28.724 8.084 15.472
-28.974 8.186 15.450
-29.224 8.328 15.431
-29.474 8.479 15.413
-29.704 8.379 15.415
-29.954 8.511 15.396
-30.194 8.481 15.393
-30.424 8.299 15.409
-30.654 8.229 15.414
-30.884 7.956 15.442
-31.104 7.662 15.469
-31.324 7.218 15.515
-31.534 6.763 15.559
-31.744 6.187 15.614
-31.984 6.197 15.605
-32.234 6.390 15.580
-32.484 6.451 15.565
-32.724 6.441 15.564
-32.964 6.543 15.552
-33.204 6.523 15.550
-33.434 6.372 15.558
-33.664 6.170 15.573
-33.904 6.018 15.591
-34.134 5.978 15.588
-34.364 5.736 15.609
-34.544 4.532 15.735
-34.774 4.229 15.761
-35.014 4.250 15.753
-35.264 4.442 15.728
-35.524 4.766 15.693
-35.764 4.858 15.670
-36.004 4.838 15.668
-36.244 4.859 15.660
-36.484 4.788 15.665
-36.724 4.738 15.671
-36.914 3.666 15.777
-37.134 3.190 15.830
-37.354 2.877 15.855
-37.594 2.807 15.860
-37.844 2.959 15.842
-38.084 3.010 15.826
-38.324 2.960 15.822
-38.554 2.799 15.839
-38.784 2.515 15.867
-39.024 2.425 15.870
-39.264 2.395 15.867
-39.504 2.314 15.871
-39.734 2.173 15.880
-39.974 2.093 15.884
-40.204 1.901 15.899
-40.414 1.103 16.227
-40.624 0.414 16.053
-40.394 0.717 16.026
-40.854 0.223 16.068
-41.084 -0.101 16.102
-41.324 -0.151 16.098
-41.564 -0.272 16.109
-41.794 -0.353 16.113
-42.034 -0.474 16.123
-42.254 -1.060 16.177
-42.474 -1.575 16.227
-42.694 -2.061 16.279
-42.924 -2.334 16.308
-43.164 -2.495 16.315
-43.394 -2.708 16.338
-43.634 -2.828 16.339
-43.844 -3.456 16.410
-44.274 -4.851 16.551
-44.044 -4.689 16.534
-44.524 -4.820 16.543
-44.764 -5.082 16.814
-44.764 -4.951 16.553
-2.844 1.909 16.692
-3.084 1.919 16.693
-3.124 2.323 16.403
-2.864 2.161 16.421
-3.354 2.142 16.660
-3.374 2.475 16.375
-3.624 2.536 16.370
-3.894 2.749 16.337
-4.154 3.002 16.306
-4.404 3.064 16.291
-4.654 3.165 16.279
-4.904 3.236 16.265
-5.144 3.187 16.261
-5.384 3.106 16.264
-5.634 3.167 16.249
-5.884 3.349 16.233
-6.134 3.411 16.218
-6.384 3.431 16.210
-6.634 3.523 16.197
-6.884 3.584 16.182
-7.124 3.564 16.180
-7.374 3.635 16.166
-7.614 3.666 16.158
-7.874 3.839 16.131
-8.124 3.960 16.121
-8.404 4.335 16.070
-8.644 4.356 16.062
-8.904 4.468 16.041
-9.164 4.741 16.012
-9.414 4.812 15.997
-9.664 4.924 15.976
-9.934 5.208 15.938
-10.184 5.289 15.925
-10.424 5.270 15.923
-10.664 5.331 15.908
-10.904 5.300 15.915
-11.784 7.155 15.931
-12.054 7.488 15.646
-11.804 7.376 15.668
-12.304 7.620 15.627
-12.564 7.823 15.602
-12.804 7.833 15.593
-13.024 7.621 15.617
-13.254 7.470 15.625
-13.494 7.369 15.627
-13.744 7.470 15.615
-13.994 7.592 15.594
-14.244 7.724 15.575
-14.494 7.826 15.563
-14.714 7.543 15.580
-14.944 7.473 15.585
-15.184 7.342 15.595
-15.404 7.139 15.619
-15.644 7.029 15.620
-15.904 7.373 15.577
-16.174 7.667 15.540
-16.414 7.657 15.539
-16.654 7.738 15.526
-16.904 7.870 15.506
-17.174 8.174 15.470
-17.454 8.792 15.388
-17.704 8.792 15.388
-17.934 8.762 15.385
-18.164 8.591 15.402
-18.404 8.571 15.391
-18.664 8.865 15.353
-18.914 8.936 15.349
-19.154 8.906 15.347
-19.364 8.441 15.390
-19.574 7.996 15.436
-19.804 7.855 15.444
-20.034 7.794 15.450
-20.274 7.765 15.447
-20.534 7.947 15.422
-20.804 8.352 15.373
-21.074 8.798 15.318
-21.314 8.779 15.307
-21.564 8.931 15.288
-21.814 9.042 15.277
-22.054 9.063 15.269
-22.284 8.962 15.271
-22.484 8.275 15.337
-22.734 8.407 15.317
-22.964 8.315 15.330
-23.194 8.215 15.332
-23.444 8.327 15.311
-23.694 8.428 15.299
-23.924 8.328 15.301
-24.164 8.298 15.299
-24.404 8.288 15.298
-24.654 8.399 15.287
-24.914 8.653 15.246
-25.164 8.875 15.224
-25.404 8.927 15.208
-25.644 8.776 15.216
-25.884 8.836 15.211
-26.124 8.816 15.209
-26.344 8.473 15.242
-26.564 8.140 15.266
-26.804 8.099 15.273
-27.044 8.080 15.262
-27.284 8.131 15.256
-27.534 8.333 15.231
-27.774 8.273 15.227
-27.994 7.980 15.254
-28.244 8.092 15.242
-28.484 8.102 15.233
-28.724 8.133 15.226
-28.974 8.245 15.204
-29.224 8.508 15.175
-29.464 8.468 15.172
-29.714 8.560 15.159
-29.954 8.560 15.149
-30.184 8.470 15.152
-30.424 8.379 15.165
-30.654 8.288 15.168
-30.894 8.188 15.170
-31.104 7.692 15.221
-31.314 7.146 15.278
-31.544 6.954 15.293
-31.754 6.408 15.351
-31.984 6.317 15.354
-32.244 6.520 15.329
-32.484 6.531 15.320
-32.724 6.521 15.319
-32.964 6.613 15.297
-33.204 6.603 15.296
-33.444 6.472 15.306
-33.664 6.077 15.345
-33.904 6.088 15.336
-34.144 6.048 15.332
-34.364 5.674 15.373
-34.534 4.470 15.499
-34.764 4.127 15.532
-35.004 4.239 15.511
-35.254 4.391 15.493
-35.514 4.704 15.457
-35.764 4.806 15.435
-36.004 4.817 15.426
-36.244 4.807 15.425
-36.484 4.747 15.431
-36.704 4.434 15.456
-36.904 3.564 15.548
-37.134 3.311 15.568
-37.354 2.846 15.612
-37.584 2.725 15.623
-37.834 2.877 15.604
-38.084 3.019 15.585
-38.324 2.929 15.588
-38.554 2.869 15.584
-38.794 2.677 15.599
-39.024 2.484 15.624
-39.254 2.364 15.624
-39.494 2.354 15.623
-39.734 2.254 15.626
-39.964 2.062 15.641
-40.184 1.546 15.700
-40.614 0.393 15.810
-40.384 0.534 15.801
-40.854 0.282 15.821
-41.084 -0.001 15.849
-41.314 -0.172 15.856
-41.554 -0.223 15.862
-41.794 -0.374 15.870
-42.034 -0.454 15.874
-42.254 -0.889 15.920
-42.474 -1.485 15.973
-42.684 -2.113 16.044
-42.924 -2.344 16.056
-43.164 -2.436 16.069
-43.394 -2.617 16.085
-43.634 -2.759 16.094
-43.834 -3.618 16.177
-44.274 -4.781 16.296
-44.044 -4.569 16.282
-44.524 -4.811 16.293
-44.754 -4.922 16.305
-3.134 2.525 16.128
-2.894 2.494 16.136
-3.394 2.657 16.109
-3.634 2.606 16.115
-3.874 2.668 16.099
-4.144 2.931 16.070
-4.394 2.971 16.063
-4.634 2.972 16.053
-4.884 3.064 16.040
-5.124 2.973 16.043
-5.374 3.064 16.030
-5.624 3.146 16.017
-5.884 3.278 15.997
-6.134 3.390 15.976
-6.394 3.582 15.951
-6.644 3.673 15.938
-6.884 3.684 15.929
-7.134 3.715 15.921
-7.384 3.776 15.906
-7.624 3.817 15.899
-7.884 3.949 15.879
-8.154 4.263 15.834
-8.424 4.628 15.792
-8.674 4.699 15.778
-8.924 4.790 15.765
-9.174 4.932 15.746
-9.424 4.973 15.739
-9.674 5.116 15.710
-9.944 5.420 15.674
-10.184 5.390 15.672
-10.424 5.360 15.669
-10.664 5.360 15.669
-10.914 5.441 15.656
-11.554 7.325 15.674
-11.814 7.628 15.397
-11.574 7.547 15.410
-12.074 7.831 15.372
-12.324 7.912 15.359
-12.574 7.993 15.345
-12.814 8.035 15.328
-13.044 7.873 15.346
-13.264 7.611 15.365
-13.504 7.620 15.366
-13.744 7.581 15.363
-14.004 7.753 15.336
-14.254 7.875 15.316
-14.494 7.947 15.301
-14.724 7.714 15.323
-14.954 7.613 15.335
-15.184 7.492 15.336
-15.414 7.229 15.365
-15.644 7.129 15.367
-15.924 7.615 15.305
-16.184 7.919 15.269
-16.424 7.858 15.274
-16.664 7.889 15.267
-16.914 7.980 15.254
-17.164 8.133 15.226
-17.454 8.710 15.161
-17.704 8.832 15.140
-17.944 8.883 15.134
-18.174 8.681 15.148
-18.404 8.610 15.153
-18.664 8.884 15.114
-18.914 9.006 15.094
-19.154 8.955 15.100
-19.374 8.623 15.124
-19.574 8.137 15.176
-19.804 7.935 15.190
-20.034 7.804 15.200
-20.274 7.794 15.199
-20.534 8.027 15.167
-20.804 8.442 15.120
-21.064 8.726 15.082
-21.314 8.868 15.063
-21.564 8.990 15.042
-21.804 9.021 15.035
-22.034 8.920 15.037
-22.274 8.830 15.040
-22.484 8.374 15.094
-22.724 8.395 15.086
-22.964 8.314 15.089
-23.194 8.245 15.084
-23.444 8.376 15.064
-23.694 8.478 15.052
-23.934 8.428 15.048
-24.164 8.387 15.055
-24.404 8.297 15.058
-24.664 8.571 15.019
-24.914 8.732 15.002
-25.164 8.986 14.962
-25.414 9.068 14.948
-25.654 9.078 14.949
-25.894 9.018 14.944
-26.124 8.866 14.962
-26.354 8.746 14.963
-26.574 8.341 15.001
-26.804 8.220 15.012
-27.044 8.261 15.005
-27.294 8.301 14.998
-27.544 8.454 14.970
-27.754 8.060 15.009
-27.984 7.827 15.031
-28.234 8.000 15.004
-28.484 8.111 14.993
-28.724 8.142 14.986
-28.974 8.315 14.959
-29.224 8.558 14.928
-29.474 8.588 14.920
-29.704 8.559 14.918
-29.954 8.661 14.896
-30.194 8.600 14.901
-30.424 8.469 14.911
-30.664 8.398 14.915
-30.884 8.216 14.931
-31.104 7.742 14.974
-31.314 7.166 15.029
-31.544 7.004 15.046
-31.764 6.640 15.078
-31.984 6.337 15.104
-32.234 6.499 15.087
-32.484 6.601 15.065
-32.724 6.652 15.059
-32.964 6.622 15.057
-33.204 6.683 15.041
-33.444 6.552 15.051
-33.664 6.178 15.092
-33.904 6.148 15.089
-34.134 6.016 15.099
-34.354 5.673 15.132
-34.544 4.611 15.239
-34.764 4.207 15.278
-35.004 4.308 15.266
-35.254 4.440 15.246
-35.504 4.613 15.219
-35.754 4.795 15.194
-35.994 4.785 15.193
-36.234 4.695 15.196
-36.464 4.493 15.210
-36.684 4.078 15.258
-36.914 3.806 15.276
-37.134 3.381 15.323
-37.354 2.947 15.359
-37.584 2.734 15.382
-37.834 2.846 15.361
-38.074 2.968 15.341
-38.324 3.019 15.335
-38.554 2.918 15.337
-38.794 2.746 15.353
-39.024 2.656 15.356
-39.264 2.474 15.372
-39.494 2.363 15.383
-39.734 2.222 15.392
-39.964 2.091 15.402
-40.184 1.505 15.456
-40.614 0.412 15.571
-40.374 0.473 15.566
-40.854 0.332 15.575
-41.084 0.099 15.596
-41.314 -0.183 15.614
-41.554 -0.284 15.626
-41.794 -0.354 15.621
-42.024 -0.445 15.634
-42.264 -0.627 15.650
-42.474 -1.305 15.717
-42.684 -2.002 15.782
-42.914 -2.326 15.817
-43.164 -2.355 15.815
-43.394 -2.446 15.817
-43.634 -2.698 15.838
-43.844 -3.437 15.920
-44.274 -4.721 16.050
-44.044 -4.428 16.023
-44.524 -4.660 16.034
-44.754 -4.811 16.043
-2.344 1.835 16.225
-2.624 2.271 16.169
-2.634 2.402 15.908
-2.364 2.138 15.947
-2.894 2.594 15.883
-3.144 2.655 15.878
-3.384 2.615 15.875
-3.634 2.667 15.859
-3.884 2.758 15.846
-4.134 2.808 15.840
-4.374 2.819 15.831
-4.624 2.850 15.823
-4.874 2.972 15.802
-5.124 3.023 15.796
-5.364 3.023 15.786
-5.614 3.085 15.771
-5.884 3.307 15.749
-6.134 3.439 15.729
-6.394 3.652 15.696
-6.644 3.734 15.682
-6.894 3.734 15.682
-7.134 3.815 15.668
-7.394 3.917 15.646
-7.634 3.897 15.645
-7.884 4.029 15.625
-8.164 4.424 15.576
-8.434 4.769 15.533
-8.664 4.637 15.542
-8.924 4.800 15.515
-9.174 4.901 15.503
-9.424 5.013 15.492
-9.684 5.257 15.451
-9.964 5.631 15.410
-10.204 5.611 15.408
-10.444 5.571 15.405
-10.674 5.521 15.401
-10.944 5.855 15.367
-11.834 7.830 15.132
-11.584 7.819 15.141
-12.084 8.032 15.107
-12.334 8.083 15.091
-12.584 8.175 15.078
-12.824 8.125 15.075
-13.044 7.882 15.096
-13.274 7.701 15.111
-13.504 7.640 15.117
-13.744 7.641 15.107
-13.994 7.682 15.100
-14.254 7.884 15.076
-14.504 7.996 15.054
-14.724 7.834 15.072
-14.964 7.744 15.075
-15.204 7.724 15.073
-15.434 7.532 15.088
-15.664 7.381 15.096
-15.934 7.827 15.041
-16.194 8.110 15.013
-16.444 8.140 15.006
-16.674 8.091 15.002
-16.924 8.101 14.992
-17.164 8.152 14.986
-17.444 8.638 14.924
-17.704 8.901 14.895
-17.944 8.902 14.885
-18.174 8.771 14.895
-18.414 8.700 14.899
-18.674 9.004 14.863
-18.914 9.076 14.848
-19.154 9.016 14.844
-19.354 8.398 14.915
-19.574 8.105 14.943
-19.814 8.075 14.940
-20.034 7.874 14.954
-20.274 7.834 14.951
-20.534 8.016 14.926
-20.794 8.431 14.878
-21.064 8.746 14.832
-21.304 8.796 14.826
-21.544 8.827 14.819
-21.794 8.918 14.806
-22.054 9.172 14.766
-22.264 8.737 14.812
-22.484 8.464 14.840
-22.734 8.495 14.833
-22.964 8.414 14.836
-23.204 8.345 14.831
-23.444 8.446 14.819
-23.694 8.487 14.812
-23.924 8.427 14.807
-24.164 8.407 14.806
-24.404 8.417 14.807
-24.664 8.589 14.780
-24.914 8.843 14.750
-25.174 9.126 14.712
-25.414 9.157 14.704
-25.654 9.168 14.695
-25.904 9.249 14.682
-26.134 9.067 14.697
-26.374 9.018 14.693
-26.584 8.542 14.746
-26.814 8.360 14.762
-27.054 8.392 14.744
-27.294 8.452 14.739
-27.524 8.321 14.749
-27.744 7.967 14.781
-27.984 7.958 14.770
-28.234 8.069 14.759
-28.484 8.211 14.740
-28.724 8.181 14.738
-28.964 8.293 14.717
-29.224 8.577 14.679
-29.474 8.669 14.666
-29.704 8.629 14.663
-29.954 8.761 14.643
-30.194 8.680 14.647
-30.424 8.559 14.657
-30.654 8.367 14.672
-30.884 8.205 14.690
-31.104 7.832 14.720
-31.304 7.174 14.789
-31.544 7.043 14.799
-31.754 6.487 14.855
-31.984 6.275 14.869
-32.234 6.498 14.846
-32.484 6.640 14.827
-32.724 6.660 14.819
-32.964 6.732 14.804
-33.204 6.712 14.803
-33.434 6.520 14.818
-33.654 6.106 14.855
-33.894 6.137 14.848
-34.124 5.955 14.864
-34.354 5.662 14.891
-34.544 4.620 14.999
-34.764 4.276 15.032
-35.004 4.287 15.023
-35.254 4.409 15.003
-35.504 4.571 14.985
-35.744 4.673 14.963
-35.994 4.815 14.944
-36.234 4.754 14.950
-36.444 4.239 14.999
-36.684 4.178 15.005
-36.914 3.926 15.025
-37.134 3.451 15.068
-37.354 3.047 15.106
-37.584 2.744 15.132
-37.824 2.784 15.126
-38.074 2.967 15.100
-38.314 2.998 15.092
-38.554 2.958 15.089
-38.784 2.766 15.104
-39.024 2.645 15.115
-39.254 2.493 15.133
-39.494 2.383 15.134
-39.724 2.171 15.148
-39.964 2.029 15.166
-40.184 1.564 15.210
-40.614 0.381 15.328
-40.374 0.573 15.313
-40.854 0.331 15.324
-41.084 0.119 15.347
-41.314 -0.174 15.374
-41.544 -0.285 15.376
-41.784 -0.376 15.389
-42.024 -0.506 15.388
-42.254 -0.658 15.406
-42.474 -1.164 15.457
-42.694 -1.699 15.505
-42.914 -2.357 15.574
-43.154 -2.367 15.573
-43.394 -2.426 15.568
-43.634 -2.528 15.580
-43.844 -3.357 15.665
-44.274 -4.641 15.795
-44.054 -4.226 15.748
-44.514 -4.691 15.791
-44.754 -4.741 15.797
-44.994 -4.932 16.053
-44.994 -5.004 15.817
-2.644 2.492 15.654
-2.384 2.309 15.680
-2.884 2.523 15.647
-3.134 2.543 15.638
-3.384 2.635 15.625
-3.634 2.655 15.617
-3.884 2.737 15.603
-4.134 2.808 15.589
-4.374 2.788 15.587
-4.624 2.930 15.568
-4.874 2.951 15.560
-5.124 3.012 15.545
-5.374 3.073 15.540
-5.614 3.124 15.524
-5.884 3.377 15.493
-6.154 3.681 15.457
-6.404 3.743 15.442
-6.664 3.945 15.418
-6.904 3.915 15.415
-7.134 3.804 15.427
-7.384 3.926 15.406
-7.634 3.917 15.395
-7.894 4.119 15.371
-8.174 4.585 15.318
-8.434 4.849 15.278
-8.664 4.707 15.297
-8.934 4.940 15.265
-9.184 5.062 15.245
-9.414 4.952 15.246
-9.694 5.417 15.192
-9.964 5.731 15.157
-10.204 5.742 15.148
-10.454 5.792 15.142
-10.704 5.874 15.128
-11.834 7.849 14.882
-11.584 7.838 14.891
-12.094 8.193 14.849
-12.344 8.224 14.832
-12.594 8.417 14.807
-12.834 8.326 14.819
-13.034 7.861 14.863
-13.274 7.770 14.866
-13.514 7.740 14.864
-13.754 7.751 14.854
-14.004 7.934 14.829
-14.264 8.076 14.810
-14.514 8.207 14.790
-14.734 7.934 14.819
-14.974 7.925 14.808
-15.224 8.016 14.795
-15.444 7.713 14.821
-15.674 7.643 14.826
-15.954 8.109 14.772
-16.214 8.352 14.741
-16.454 8.353 14.731
-16.684 8.241 14.743
-16.924 8.252 14.733
-17.174 8.343 14.721
-17.444 8.698 14.678
-17.694 8.860 14.651
-17.944 8.911 14.645
-18.174 8.821 14.648
-18.414 8.811 14.647
-18.674 9.094 14.609
-18.924 9.135 14.602
-19.164 9.136 14.592
-19.364 8.560 14.647
-19.584 8.267 14.674
-19.804 7.994 14.703
-20.044 7.944 14.699
-20.274 7.883 14.704
-20.524 8.005 14.684
-20.784 8.319 14.648
-21.054 8.683 14.607
-21.314 8.917 14.575
-21.554 8.897 14.564
-21.794 8.948 14.557
-22.024 8.786 14.575
-22.254 8.594 14.590
-22.474 8.403 14.605
-22.724 8.484 14.591
-22.964 8.454 14.589
-23.204 8.383 14.593
-23.444 8.404 14.585
-23.684 8.456 14.569
-23.934 8.547 14.556
-24.174 8.507 14.553
-24.414 8.487 14.551
-24.664 8.670 14.526
-24.924 8.963 14.488
-25.184 9.287 14.454
-25.424 9.339 14.438
-25.664 9.359 14.429
-25.904 9.248 14.441
-26.134 9.178 14.445
-26.374 9.128 14.441
-26.604 8.926 14.455
-26.824 8.633 14.483
-27.054 8.552 14.486
-27.304 8.583 14.479
-27.524 8.300 14.506
-27.734 7.876 14.543
-27.984 7.886 14.544
-28.214 7.856 14.542
-28.464 7.958 14.520
-28.714 8.100 14.501
-28.964 8.333 14.469
-29.224 8.637 14.433
-29.464 8.617 14.431
-29.714 8.819 14.407
-29.954 8.799 14.405
-30.194 8.750 14.401
-30.434 8.760 14.392
-30.654 8.457 14.419
-30.884 8.315 14.437
-31.094 7.749 14.493
-31.304 7.244 14.544
-31.534 6.931 14.569
-31.744 6.385 14.627
-31.974 6.304 14.630
-32.224 6.457 14.602
-32.474 6.649 14.577
-32.714 6.629 14.576
-32.964 6.751 14.555
-33.204 6.751 14.555
-33.424 6.448 14.581
-33.654 6.186 14.601
-33.894 6.196 14.602
-34.124 5.954 14.623
-34.344 5.539 14.660
-34.544 4.751 14.739
-34.764 4.367 14.779
-35.004 4.418 14.763
-35.244 4.418 14.763
-35.494 4.530 14.741
-35.744 4.662 14.722
-35.984 4.662 14.722
-36.204 4.308 14.754
-36.444 4.288 14.752
-36.694 4.329 14.746
-36.914 3.996 14.770
-37.134 3.592 14.808
-37.364 3.359 14.830
-37.584 2.914 14.875
-37.824 2.814 14.877
-38.064 2.895 14.864
-38.314 3.047 14.845
-38.554 3.017 14.843
-38.784 2.845 14.860
-39.024 2.664 14.875
-39.254 2.543 14.876
-39.484 2.341 14.900
-39.724 2.149 14.915
-39.954 2.068 14.919
-40.184 1.736 14.943
-40.604 0.421 15.080
-40.374 0.622 15.066
-40.844 0.360 15.085
-41.084 0.209 15.093
-41.304 -0.165 15.124
-41.544 -0.296 15.134
-41.784 -0.336 15.131
-42.024 -0.457 15.141
-42.254 -0.578 15.152
-42.484 -0.972 15.191
-42.704 -1.457 15.233
-42.914 -2.236 15.312
-43.154 -2.337 15.324
-43.394 -2.316 15.316
-43.634 -2.447 15.326
-43.844 -3.206 15.407
-44.054 -3.903 15.472
-44.274 -4.621 15.546
-44.514 -4.651 15.544
-44.754 -4.691 15.540
-44.994 -4.934 15.561
-2.114 2.056 15.720
-2.384 2.440 15.430
-2.134 2.328 15.441
-2.634 2.481 15.413
-2.884 2.512 15.405
-3.134 2.562 15.399
-3.384 2.684 15.379
-3.634 2.705 15.370
-3.884 2.806 15.358
-4.124 2.817 15.349
-4.384 2.908 15.336
-4.624 2.899 15.325
-4.874 3.051 15.307
-5.114 3.001 15.303
-5.374 3.122 15.293
-5.624 3.244 15.272
-5.874 3.326 15.259
-6.154 3.781 15.204
-6.404 3.863 15.190
-6.644 3.782 15.194
-6.904 3.995 15.161
-7.144 3.945 15.167
-7.384 3.965 15.158
-7.634 3.976 15.149
-7.904 4.270 15.112
-8.184 4.766 15.051
-8.424 4.727 15.048
-8.664 4.697 15.045
-8.924 4.929 15.024
-9.174 5.031 15.002
-9.424 5.031 15.002
-9.694 5.457 14.945
-9.964 5.801 14.902
-10.214 5.883 14.888
-10.464 5.913 14.880
-10.724 6.207 14.843
-11.854 8.182 14.608
-11.594 7.979 14.632
-12.104 8.324 14.589
-12.364 8.557 14.557
-12.614 8.628 14.542
-12.824 8.244 14.582
